ply
format ascii 1.0
element vertex 777
property float x
property float y
property float z
end_header
0.2805017828941345 0.03019106388092041 -0.09192138910293579
-0.17884105443954468 0.026115775108337402 0.2964898347854614
0.10704892873764038 0.0534968376159668 -0.24256306886672974
0.1629716157913208 0.08408433198928833 0.3106961250305176
-0.0937296450138092 -0.007036805152893066 -0.29509028792381287
-0.315657377243042 0.01744312047958374 0.1829977035522461
-0.25275179743766785 -2.2977590560913086e-05 0.0002459883689880371
-0.21144920587539673 0.014329254627227783 -0.13525009155273438
-0.2978575527667999 -0.015903711318969727 -0.1915486752986908
0.25438326597213745 0.06861114501953125 -0.12610891461372375
-0.066264808177948 -0.035629093647003174 0.24461883306503296
0.09647822380065918 -0.021986961364746094 0.2676980495452881
0.1707606315612793 -0.0732463002204895 -0.29673150181770325
-0.2814026176929474 -0.0008552670478820801 0.02805042266845703
-0.2298867106437683 -0.0005821585655212402 0.003819584846496582
0.26916414499282837 0.06994426250457764 0.17429566383361816
0.011737644672393799 0.024896681308746338 -0.2758904695510864
0.0181085467338562 -0.014227509498596191 -0.31290438771247864
-0.03262415528297424 -0.03607022762298584 -0.3381476104259491
0.2251473069190979 0.06570214033126831 0.23903465270996094
0.2917647361755371 0.010737061500549316 -0.06457799673080444
0.29325151443481445 0.04335165023803711 0.08888250589370728
0.036427438259124756 0.048697710037231445 -0.2551734745502472
0.06608974933624268 -0.00021335482597351074 0.29245489835739136
-0.16435399651527405 0.002151966094970703 -0.246148943901062
0.29018205404281616 0.06521856784820557 0.11616253852844238
-0.3122372627258301 0.002060532569885254 0.06716066598892212
0.07367932796478271 0.022057175636291504 0.3087429404258728
-0.0891808569431305 -0.01050451397895813 0.2712011933326721
-0.2013615071773529 -0.00864565372467041 0.03683990240097046
0.15659761428833008 0.03175479173660278 0.27738797664642334
0.2696644067764282 -0.05197632312774658 -0.1616080403327942
0.2484877109527588 -0.08302593231201172 -0.21926087141036987
0.1460798978805542 0.04722094535827637 -0.23174789547920227
0.049479126930236816 -0.005465477705001831 0.29121124744415283
-0.18736320734024048 -0.022327959537506104 0.10640186071395874
0.10801500082015991 -0.041676849126815796 -0.31146010756492615
0.18069535493850708 0.013316154479980469 0.2479078769683838
0.02296924591064453 0.01424252986907959 -0.28593459725379944
-0.0977250337600708 0.05209237337112427 -0.1914117932319641
0.29959994554519653 -0.04981711506843567 -0.05427020788192749
-0.03810244798660278 -0.03616815805435181 0.25520217418670654
0.16668027639389038 -0.0452018678188324 0.22177404165267944
0.22030091285705566 -0.08953303098678589 0.1581507921218872
-0.2027219831943512 -0.014182418584823608 0.06879746913909912
-0.2665714919567108 0.003081023693084717 -0.0890582799911499
0.23035025596618652 0.01040959358215332 0.19816803932189941
0.2924461364746094 -0.008524060249328613 -0.07135292887687683
-0.25615379214286804 0.0047547221183776855 -0.09804520010948181
-0.027103424072265625 -0.04055479168891907 0.25343161821365356
-0.21206694841384888 -0.011999547481536865 0.1564263105392456
0.2948579788208008 0.07169103622436523 0.10222136974334717
0.29593706130981445 -0.09940212965011597 0.02013981342315674
0.14772260189056396 -0.07337477803230286 -0.31347331404685974
0.015038549900054932 0.011744916439056396 -0.2884597182273865
-0.3056473433971405 0.03175199031829834 0.24353182315826416
-0.12228113412857056 0.01957172155380249 -0.23844057321548462
0.27557170391082764 0.08974301815032959 0.17413204908370972
-0.1954060196876526 -0.0035586953163146973 0.21698886156082153
0.21661370992660522 0.060103654861450195 0.2450885772705078
-0.24535006284713745 0.006291389465332031 -0.1186758279800415
-0.1674126386642456 0.024804651737213135 0.29861634969711304
-0.03694400191307068 0.024262428283691406 -0.26966819167137146
-0.17131203413009644 0.027729034423828125 -0.1445102095603943
0.02011972665786743 0.06971263885498047 -0.2351384162902832
-0.2511376738548279 0.004757046699523926 -0.0569537878036499
-0.17860984802246094 -0.01897275447845459 0.18162328004837036
0.08350872993469238 -0.07553952932357788 0.2323284149169922
0.035368144512176514 -0.0433192253112793 0.2597823143005371
0.03306084871292114 0.029564201831817627 -0.2718105912208557
0.1829243302345276 0.0019295215606689453 -0.23658257722854614
0.18145740032196045 0.033199965953826904 -0.21898174285888672
-0.02211320400238037 -0.00042188167572021484 0.29872840642929077
-0.06857186555862427 -0.045321762561798096 -0.3484271168708801
0.23102635145187378 -0.05679473280906677 0.16185909509658813
-0.19848355650901794 -0.023683130741119385 -0.28285953402519226
-0.020530372858047485 0.011878371238708496 0.3120109438896179
-0.26072052121162415 -0.004005134105682373 0.09338665008544922
-0.06393259763717651 0.0033826231956481934 0.29739272594451904
0.06897240877151489 -0.021250277757644653 0.27490222454071045
-0.06260022521018982 0.015194118022918701 -0.27387794852256775
0.0913475751876831 0.04566943645477295 -0.25193077325820923
0.2694006562232971 -0.07955634593963623 -0.18029513955116272
-0.18779057264328003 -0.02169749140739441 0.14156854152679443
-0.08107087016105652 0.010924279689788818 0.3035860061645508
-0.291610449552536 -0.0003846585750579834 0.038187623023986816
-0.1687321662902832 -0.03057849407196045 -0.3084471523761749
0.30173617601394653 -0.06711578369140625 -0.04212057590484619
0.25574707984924316 -0.05528324842453003 0.12975090742111206
-0.1878240704536438 0.042838990688323975 0.3238426446914673
0.028068184852600098 0.05682474374771118 0.35134685039520264
0.21515971422195435 -0.013769388198852539 0.20118409395217896
0.21895581483840942 0.03161805868148804 0.2241048812866211
0.23816025257110596 -0.03686106204986572 0.1629917025566101
-0.21056807041168213 -0.016965270042419434 -0.2611561119556427
-0.2838016152381897 -0.02032548189163208 -0.22037369012832642
0.10306137800216675 0.04175049066543579 0.3137364387512207
0.2843196988105774 0.009096503257751465 -0.09116321802139282
-0.08259645104408264 0.05416715145111084 0.3586711883544922
0.18544292449951172 -0.0032083094120025635 -0.23780953884124756
0.08416152000427246 -0.028724223375320435 -0.31078627705574036
0.26951420307159424 0.05517500638961792 -0.10584670305252075
0.15344363451004028 0.06414711475372314 -0.2181319296360016
-0.24910005927085876 0.0055182576179504395 -0.11726567149162292
0.29403531551361084 -0.007043391466140747 0.05607402324676514
-0.29763180017471313 0.0005624890327453613 0.06693261861801147
-0.13223281502723694 0.020797669887542725 0.3042216897010803
-0.03694826364517212 -0.025498956441879272 0.2682145833969116
-0.30694451928138733 0.0277252197265625 0.22964048385620117
0.2989311218261719 0.042297959327697754 -0.011814087629318237
0.17735439538955688 -0.07826119661331177 0.19709259271621704
-0.19012361764907837 0.03003692626953125 0.29938948154449463
0.05570274591445923 0.0513453483581543 0.3390529155731201
0.07917386293411255 0.07282435894012451 -0.23471540212631226
0.19020485877990723 -0.0863821804523468 -0.28978231549263
-0.3853533864021301 -0.011755377054214478 -0.09492254257202148
-0.1803213357925415 -0.009574860334396362 -0.26218199729919434
-0.09617498517036438 0.04266238212585449 -0.2132817506790161
0.2831299304962158 -0.008147239685058594 -0.10346364974975586
0.07033747434616089 -0.05021503567695618 0.2522484064102173
-0.15914517641067505 0.033599674701690674 -0.13296014070510864
0.0206148624420166 -0.03307625651359558 0.2685752511024475
-0.12544047832489014 -0.017356038093566895 0.24064934253692627
-0.10335591435432434 0.020975768566131592 -0.24783790111541748
-0.04467660188674927 -0.017329663038253784 -0.3168103098869324
0.30012667179107666 0.08199727535247803 0.08104211091995239
0.05873388051986694 -0.009295165538787842 0.28645801544189453
-0.08821386098861694 -0.0004801154136657715 0.2860567569732666
-0.3024507164955139 0.010851442813873291 0.16219490766525269
0.22086995840072632 -0.016161799430847168 -0.21252435445785522
0.10409104824066162 0.06963598728179932 -0.23264354467391968
-0.20074379444122314 -0.0066058337688446045 0.20098567008972168
0.2504073977470398 0.04819607734680176 0.1934872269630432
-0.048609912395477295 -0.06532937288284302 -0.37127169966697693
-0.2906405031681061 0.0004547238349914551 -0.04438126087188721
-0.21109628677368164 0.005346715450286865 -0.1933254599571228
0.2763040065765381 0.013457536697387695 -0.11006250977516174
0.02898871898651123 0.06482529640197754 -0.24077260494232178
0.2963155508041382 0.03146326541900635 -0.033644527196884155
0.23967492580413818 0.07766658067703247 -0.14221519231796265
0.3012949824333191 0.05816328525543213 0.02105337381362915
-0.30754345655441284 -0.005837440490722656 -0.12148192524909973
0.3034149408340454 -0.09130927920341492 -0.04605907201766968
-0.3349415957927704 0.020676732063293457 0.18218833208084106
0.24033123254776 0.08420133590698242 0.23194903135299683
0.30025577545166016 0.029293060302734375 0.0068419575691223145
-0.23339596390724182 -0.020025432109832764 -0.2547554075717926
-0.030282139778137207 -0.05567559599876404 -0.35929161310195923
-0.3858184516429901 0.0014568567276000977 0.013069212436676025
-0.033763349056243896 0.03824508190155029 0.34055471420288086
-0.13768869638442993 0.038781166076660156 0.330635666847229
0.23344671726226807 0.015893638134002686 0.1975603699684143
0.2971445322036743 -0.05022597312927246 -0.07362359762191772
0.30158716440200806 -0.06823626160621643 -0.04828202724456787
0.21540212631225586 -0.03156012296676636 0.19119083881378174
0.030106306076049805 -0.0016605854034423828 0.296977162361145
-0.21231120824813843 0.014508724212646484 -0.12753146886825562
0.2137567400932312 -0.007069617509841919 -0.21466001868247986
0.187150776386261 -0.026287108659744263 -0.2511272728443146
0.06034821271896362 0.060791969299316406 0.3458782434463501
0.19174659252166748 -0.035486459732055664 0.20997118949890137
-0.06472447514533997 0.046764075756073 0.350267231464386
0.19979405403137207 -0.0828256905078888 -0.27817174792289734
-0.1408805251121521 -0.022389978170394897 0.21706634759902954
-0.24032247066497803 -0.005022168159484863 0.04365694522857666
-0.18027135729789734 -0.024415045976638794 0.10152697563171387
0.2965489625930786 -0.016129493713378906 -0.054203540086746216
-0.003575533628463745 -0.0067587196826934814 0.2931365370750427
0.18501156568527222 0.0638047456741333 0.2783193588256836
-0.19554007053375244 -0.018829792737960815 0.092898428440094
-0.01803690195083618 0.06379038095474243 -0.23031342029571533
0.09493666887283325 0.06364458799362183 -0.23863258957862854
-0.0962076187133789 -0.042299121618270874 0.21396833658218384
-0.19877654314041138 0.013682246208190918 -0.060263246297836304
-0.053982704877853394 0.029579341411590576 0.33042335510253906
0.1427098512649536 0.04797184467315674 0.2977747321128845
-0.033835411071777344 -0.010690778493881226 -0.3100802004337311
-0.2998615801334381 -0.026616990566253662 -0.2305968999862671
0.24798941612243652 0.06615543365478516 -0.13636767864227295
-0.09861516952514648 0.005917191505432129 0.2920430302619934
-0.36078697443008423 -0.014619767665863037 -0.1302204132080078
-0.15202152729034424 -0.05348607897758484 -0.3499559760093689
-0.07479307055473328 0.0517042875289917 0.3559250235557556
-0.05349960923194885 0.02303934097290039 -0.266561359167099
-0.21872711181640625 -0.013026118278503418 0.11671602725982666
0.20427876710891724 -0.06121811270713806 0.18604415655136108
0.16468852758407593 -0.030643582344055176 0.2316054105758667
-0.24945223331451416 -0.0022479891777038574 0.02269613742828369
0.3001028895378113 0.06663227081298828 0.06568098068237305
-0.05125740170478821 0.01401454210281372 -0.27849289774894714
-0.3430805802345276 -0.02133256196975708 -0.17903947830200195
0.28713685274124146 0.07591843605041504 0.13392728567123413
0.1443849802017212 0.068206787109375 0.31176769733428955
-0.31353551149368286 0.015219628810882568 0.17426693439483643
-0.3597237467765808 0.01743096113204956 0.1471436619758606
-0.358428031206131 0.0103837251663208 0.10383039712905884
-0.15561527013778687 0.03152495622634888 -0.16530147194862366
0.28997254371643066 0.01773613691329956 -0.06842273473739624
-0.12360459566116333 -0.010349243879318237 -0.29044437408447266
0.15096819400787354 -0.055469661951065063 0.22440773248672485
0.18568843603134155 0.03456670045852661 0.2577870488166809
0.12607920169830322 0.057623207569122314 -0.23377671837806702
-0.2290930151939392 0.004046320915222168 -0.026828080415725708
-0.2593994736671448 -0.0029862523078918457 0.041867196559906006
-0.31093987822532654 0.002003192901611328 0.06851786375045776
0.09120821952819824 -0.06739938259124756 0.23677611351013184
0.002407252788543701 -0.069928377866745 0.23078465461730957
-0.2521139085292816 0.01583617925643921 0.22949254512786865
0.183508038520813 -0.044359683990478516 0.21118927001953125
0.136946439743042 0.04292565584182739 -0.23863929510116577
-0.3625929355621338 0.014648377895355225 0.12901979684829712
-0.07373318076133728 0.01280832290649414 -0.2735176682472229
0.03907155990600586 0.06544089317321777 -0.24116355180740356
-0.26673784852027893 0.0031616687774658203 -0.07903379201889038
0.2949671745300293 -0.04211065173149109 -0.07992714643478394
-0.2034972906112671 0.0008271932601928711 -0.21782931685447693
0.3025331497192383 0.09604990482330322 0.020240724086761475
0.21648943424224854 -0.0846359133720398 -0.2619800269603729
0.07268863916397095 -0.02705705165863037 -0.3131711781024933
-0.29096075892448425 -0.017360150814056396 -0.20355921983718872
0.3005908727645874 -0.050082385540008545 -0.041478097438812256
-0.222639262676239 -0.0070119500160217285 0.16830533742904663
0.14519989490509033 -0.05044570565223694 0.23021012544631958
-0.24669602513313293 -0.04040732979774475 -0.2969987988471985
0.24115312099456787 0.0585290789604187 -0.14884841442108154
-0.23908916115760803 0.008086919784545898 -0.1090293824672699
0.2896351218223572 0.05613154172897339 0.11177688837051392
-0.27583569288253784 0.0009506344795227051 -0.02260485291481018
0.05833399295806885 -0.058287858963012695 0.2470782995223999
0.29860496520996094 -0.04064694046974182 -0.055726200342178345
-0.04667091369628906 0.028437912464141846 -0.26192134618759155
0.23234975337982178 0.04986089468002319 -0.1636601686477661
-0.12068849802017212 0.030557215213775635 -0.21665143966674805
-0.2773418128490448 -0.0014877021312713623 0.0849657654762268
0.029729127883911133 -0.04293462634086609 0.26000070571899414
-0.20805221796035767 -0.014801859855651855 0.08525747060775757
-0.21823185682296753 -0.0066547393798828125 0.1774430274963379
0.3020690083503723 -0.07152628898620605 -0.04060274362564087
-0.2904198169708252 0.020892858505249023 0.21739792823791504
-0.2322549819946289 -0.0016459524631500244 0.01133882999420166
0.12960946559906006 0.017142295837402344 0.28270423412323
-0.13543826341629028 -0.0366896390914917 0.18217456340789795
0.26975685358047485 0.06940841674804688 -0.09968394041061401
0.0697716474533081 -0.02191486954689026 -0.30976736545562744
-0.24115872383117676 -0.011293619871139526 -0.22349995374679565
-0.2374362349510193 0.008458077907562256 -0.09082192182540894
-0.20656812191009521 -0.005366921424865723 0.02417731285095215
-0.2831399142742157 -0.009082108736038208 -0.17369693517684937
-0.3147529363632202 0.009250640869140625 0.13866370916366577
-0.2681023180484772 -0.0013321340084075928 -0.14590835571289062
-0.33060067892074585 0.005787551403045654 0.09091347455978394
0.10556477308273315 0.03602612018585205 -0.25493305921554565
-0.11727619171142578 0.015516102313995361 -0.24935388565063477
0.17566418647766113 0.000868380069732666 -0.2426443099975586
0.18666136264801025 -0.06416606903076172 0.19823330640792847
-0.2112467885017395 -0.004814326763153076 0.1953120231628418
-0.29857495427131653 7.200241088867188e-05 0.03897416591644287
0.2614891529083252 0.038658738136291504 0.16911756992340088
0.1586558222770691 -0.01515689492225647 -0.2646763324737549
0.12930679321289062 0.0032524466514587402 0.27298158407211304
0.29393577575683594 0.07389628887176514 -0.0333484411239624
-0.0680224597454071 0.03700053691864014 0.3384091854095459
-0.2822876274585724 -0.007937401533126831 -0.1685466766357422
-0.016262024641036987 -0.0010609626770019531 0.29843688011169434
-0.2230980396270752 -0.00665050745010376 0.04088348150253296
-0.20114177465438843 -0.0018745958805084229 0.007642269134521484
0.25058603286743164 0.012972533702850342 -0.15802350640296936
-0.19979217648506165 0.021070003509521484 0.2766006588935852
0.16635936498641968 0.0745437741279602 -0.20554596185684204
-0.31906694173812866 -0.0010727643966674805 -0.033041954040527344
-0.19469457864761353 -0.009552419185638428 -0.2531944513320923
-0.21706560254096985 0.01044553518295288 -0.06240028142929077
-0.3261244297027588 0.003450453281402588 0.06845927238464355
0.18708723783493042 0.06740355491638184 -0.19624322652816772
-0.13509830832481384 -0.0063124001026153564 -0.27908968925476074
0.1636022925376892 0.04544943571090698 0.282190203666687
-0.1552860140800476 -0.029485434293746948 0.1759033203125
0.205419659614563 -0.0010180175304412842 -0.21924340724945068
-0.2103073000907898 -0.04210031032562256 -0.314974844455719
0.2184605598449707 -0.0189456045627594 0.19491833448410034
0.20016753673553467 0.03586965799331665 0.24587541818618774
0.30007171630859375 -0.01379305124282837 -0.009025126695632935
0.2815166711807251 0.011057615280151367 0.10953497886657715
-0.1941259205341339 -0.029359489679336548 -0.2964124381542206
-0.022622376680374146 0.055286526679992676 -0.2381405234336853
0.052807748317718506 -0.00784844160079956 -0.30201318860054016
0.17533957958221436 0.08433043956756592 0.3011592626571655
0.19479906558990479 0.0734320878982544 -0.18753203749656677
-0.14860785007476807 -0.03473389148712158 0.16480028629302979
0.18218189477920532 0.08412384986877441 -0.19103708863258362
-0.1474655270576477 -0.0147646963596344 0.22971779108047485
-0.31294411420822144 0.011401236057281494 0.15428441762924194
-0.21841630339622498 0.012672066688537598 -0.12879472970962524
0.14579594135284424 0.011885583400726318 0.27027714252471924
0.12671399116516113 0.06873834133148193 0.32289326190948486
-0.27904456853866577 0.0010306239128112793 -0.029777437448501587
-0.2600727677345276 0.0041866302490234375 -0.07888209819793701
-0.2105732560157776 0.005009770393371582 -0.024037301540374756
-0.1707558035850525 0.022957324981689453 0.29388391971588135
0.11526435613632202 -0.07710051536560059 0.22506368160247803
-0.335511177778244 0.02060413360595703 0.18142378330230713
0.3017385005950928 -0.06491440534591675 -0.031232088804244995
0.12702524662017822 -0.05543658137321472 0.2348042130470276
0.29145658016204834 -0.06362920999526978 -0.11032992601394653
0.18569058179855347 -0.004048943519592285 -0.23813700675964355
0.055419743061065674 -0.010679841041564941 -0.303896427154541
-0.35054877400398254 -0.022913813591003418 -0.18078643083572388
0.2474384903907776 0.07755106687545776 -0.13227015733718872
0.15475666522979736 -0.04846692085266113 -0.2904348075389862
-0.11916112899780273 0.008317053318023682 -0.26116272807121277
-0.39629998803138733 -0.00020110607147216797 -0.0016551613807678223
0.19134974479675293 0.04673343896865845 -0.2040793001651764
-0.3087887763977051 -0.01969572901725769 -0.19847023487091064
-0.26005205512046814 -0.0031896233558654785 0.04673337936401367
0.2991584539413452 0.016256272792816162 0.032023847103118896
-0.13964897394180298 0.004468560218811035 0.2737318277359009
-0.03638526797294617 0.024354636669158936 0.3252023458480835
-0.25068962574005127 -0.004118889570236206 -0.18647393584251404
0.29192864894866943 -0.024191230535507202 -0.08245912194252014
0.2050405740737915 -0.008829772472381592 -0.2242952585220337
0.2081606388092041 0.06841450929641724 -0.1791190803050995
-0.08323925733566284 -0.022974997758865356 -0.31905853748321533
-0.3606943190097809 0.0018085837364196777 0.02129441499710083
0.09732544422149658 -0.016506582498550415 -0.2963826358318329
-0.27253642678260803 0.0038031935691833496 0.15647590160369873
-0.1840720772743225 -0.018079817295074463 0.1765047311782837
-0.23843741416931152 -0.005596518516540527 0.14736098051071167
0.29936790466308594 -0.048857808113098145 -0.055709660053253174
0.1692325472831726 0.006745338439941406 0.25205302238464355
-0.22304058074951172 0.0027124881744384766 0.2106947898864746
-0.16677391529083252 0.024029135704040527 -0.17922604084014893
-0.3670649826526642 -0.0116310715675354 -0.10613298416137695
0.26021552085876465 0.06648355722427368 -0.1178276538848877
-0.33572930097579956 -0.018760859966278076 -0.17263078689575195
0.18096697330474854 0.010523498058319092 0.24591100215911865
-0.24998021125793457 -0.00030028820037841797 0.0030025243759155273
0.29149746894836426 0.056966960430145264 -0.047681838274002075
0.2208796739578247 0.07598376274108887 -0.16367825865745544
-0.29957523941993713 0.0036917924880981445 0.11313271522521973
0.23183321952819824 0.04930907487869263 0.22010964155197144
-0.21693354845046997 -0.0020232200622558594 -0.21429044008255005
0.2182508111000061 -0.07543402910232544 0.1665021777153015
0.22740864753723145 -0.09501194953918457 0.14867651462554932
-0.28597956895828247 0.006699204444885254 0.15681242942810059
-0.0514562726020813 -0.0345689058303833 -0.3363463580608368
0.08896636962890625 -0.07484981417655945 0.23206430673599243
0.1474677324295044 -0.06759199500083923 0.21900486946105957
0.30192017555236816 0.06865870952606201 0.03031635284423828
0.21871447563171387 -0.05214434862136841 0.17725467681884766
-0.12042924761772156 0.007284700870513916 0.2866945266723633
0.27740538120269775 0.05607181787490845 0.14697766304016113
-0.11010980606079102 0.00040847063064575195 -0.2784164845943451
0.28876984119415283 -0.029074877500534058 0.0678367018699646
0.29756826162338257 -0.06890231370925903 -0.08606266975402832
-0.19950264692306519 0.015375196933746338 -0.16124409437179565
-0.10167920589447021 0.025617241859436035 0.3192429542541504
0.25493383407592773 0.03397810459136963 0.17754441499710083
0.12709981203079224 -0.05529406666755676 -0.312324196100235
0.23982417583465576 0.0222623348236084 -0.1682710349559784
0.21364951133728027 -0.07596445083618164 0.17058217525482178
0.16812700033187866 -0.05340021848678589 -0.28450724482536316
0.28847914934158325 -0.053503721952438354 0.05946052074432373
-0.34848886728286743 -0.005324661731719971 -0.06802979111671448
-0.25108179450035095 0.0009443163871765137 -0.009734869003295898
-0.028513729572296143 0.039697349071502686 -0.25400152802467346
-0.2690891921520233 0.0002664327621459961 -0.12997615337371826
0.2543691396713257 -0.07882934808731079 0.12193053960800171
-0.1234636902809143 -0.027026087045669556 0.2220296859741211
-0.37525618076324463 -0.01637682318687439 -0.1301608681678772
-0.06271886825561523 0.039299190044403076 -0.24114975333213806
0.2605365514755249 -0.0600125789642334 0.12000006437301636
0.2768861651420593 0.040309369564056396 0.13830721378326416
0.04488706588745117 -0.043418288230895996 0.25959277153015137
-0.28538236021995544 0.0007911324501037598 -0.03713315725326538
0.0637626051902771 -0.031267523765563965 0.26781702041625977
0.3024289011955261 0.07834911346435547 0.03132694959640503
-0.16377627849578857 -0.00864708423614502 0.23113209009170532
-0.24734079837799072 -0.005179017782211304 0.1287180781364441
0.0028271079063415527 -0.020986974239349365 -0.3207903802394867
0.009804606437683105 -0.06408917903900146 -0.3622453212738037
-0.1312243938446045 -0.017240285873413086 -0.29885855317115784
0.20387256145477295 0.06322383880615234 0.2605147361755371
0.20257067680358887 0.02475684881210327 -0.20694810152053833
-0.3204960525035858 -0.005430668592453003 -0.09984833002090454
0.04443234205245972 -0.00917544960975647 -0.30471208691596985
-0.21838584542274475 6.759166717529297e-05 -0.0003616511821746826
-0.19937989115715027 -0.0467798113822937 -0.32732686400413513
0.11701130867004395 -0.0792432427406311 0.22325968742370605
-0.38614749908447266 0.009077191352844238 0.07569241523742676
-0.05495935678482056 -0.02713388204574585 -0.3274873197078705
-0.3234909474849701 0.0016703009605407715 0.041505634784698486
-0.3645577132701874 -0.0009916424751281738 -0.011172503232955933
0.273479700088501 -0.07807531952857971 0.08904117345809937
-0.01435762643814087 0.03874003887176514 -0.2586517035961151
0.2721329927444458 -0.028359532356262207 -0.14200180768966675
-0.17159247398376465 0.018305420875549316 -0.19460910558700562
-0.3739103674888611 0.007230222225189209 0.06809121370315552
-0.19483178853988647 -0.020119279623031616 0.12356835603713989
0.28238552808761597 0.044855356216430664 -0.0807742178440094
0.30016303062438965 0.08450073003768921 0.0011742711067199707
0.2790040969848633 0.06146442890167236 0.1465749740600586
-0.18818596005439758 0.022266387939453125 -0.1288158893585205
0.26311469078063965 -0.0672265887260437 0.11264687776565552
-0.011664718389511108 0.061309754848480225 -0.23528647422790527
0.0642436146736145 -0.03903841972351074 -0.3258194029331207
0.11055713891983032 0.03801369667053223 -0.25198012590408325
-0.22800981998443604 -0.007145345211029053 0.049422502517700195
0.13463348150253296 0.03806954622268677 -0.24274548888206482
0.23600983619689941 0.05391740798950195 -0.15738141536712646
-0.13780102133750916 -0.03996407985687256 0.16403049230575562
-0.20804035663604736 -0.012577325105667114 0.06542927026748657
-0.17716997861862183 -0.04425102472305298 -0.329423189163208
0.02912592887878418 0.03857392072677612 -0.2638472020626068
0.13837099075317383 -0.005249202251434326 0.2626081705093384
-0.09531870484352112 -0.023214280605316162 0.24858832359313965
-0.12058600783348083 0.04557394981384277 -0.17633435130119324
0.29839426279067993 -0.07408836483955383 -0.08551943302154541
-0.3693186044692993 0.01283574104309082 0.11261111497879028
0.18001490831375122 0.0799131989479065 0.29405051469802856
-0.10732543468475342 -0.004279434680938721 0.27341240644454956
-0.18736234307289124 0.009833335876464844 -0.20495307445526123
0.055390894412994385 -0.058194518089294434 0.24727123975753784
0.25615352392196655 -0.06929349899291992 0.12312984466552734
0.16366726160049438 0.05665922164916992 0.2901057004928589
0.11202031373977661 -0.0030756890773773193 0.27606701850891113
0.26973283290863037 0.08867889642715454 -0.09263542294502258
0.2949294447898865 -0.06753337383270264 -0.0986710786819458
-0.18746265769004822 -0.011751383543014526 0.1980413794517517
-0.2607412040233612 -0.0034984350204467773 0.05503612756729126
0.030868351459503174 -0.049068987369537354 0.25465571880340576
0.22835564613342285 -0.09311598539352417 0.1484883427619934
-0.2935146689414978 0.00824052095413208 0.15701675415039062
-0.341232031583786 0.02512049674987793 0.19671469926834106
-0.010129839181900024 -0.038810789585113525 0.2594466209411621
-0.30062592029571533 0.0017784833908081055 0.0859953761100769
0.20047765970230103 0.0482712984085083 0.25374001264572144
-0.39286601543426514 -0.0014626383781433105 -0.012352585792541504
0.08753621578216553 0.012765228748321533 0.2969099283218384
-0.22572559118270874 -0.00460439920425415 -0.2146947979927063
0.10910940170288086 -0.05632707476615906 0.24009770154953003
0.06918776035308838 -0.04382455348968506 -0.32834190130233765
-0.15283530950546265 -0.03474551439285278 0.15275734663009644
-0.21488657593727112 -0.04342976212501526 -0.3159090578556061
-0.2094133496284485 -0.009733527898788452 0.04858344793319702
-0.28386661410331726 0.0010223984718322754 -0.06150484085083008
-0.018005311489105225 -0.03641611337661743 -0.33792874217033386
-0.3223186135292053 -0.0018798112869262695 -0.04727938771247864
0.13912248611450195 0.0659748911857605 -0.22359853982925415
-0.02992275357246399 -0.02930864691734314 0.26552218198776245
-0.04855361580848694 -0.0451621413230896 0.23991888761520386
-0.15079209208488464 0.001744985580444336 0.26282811164855957
-0.22322773933410645 -0.007057547569274902 0.04387551546096802
-0.07467436790466309 0.023887455463409424 -0.25759923458099365
-0.0013529062271118164 -0.020151793956756592 -0.3202342391014099
-0.17100486159324646 0.041565895080566406 0.32662272453308105
0.164264976978302 0.08037424087524414 -0.20356857776641846
0.022526323795318604 -0.02265360951423645 -0.32032540440559387
-0.09391564130783081 -0.03637629747390747 0.2269073724746704
0.2966400384902954 0.011993348598480225 0.051208436489105225
-0.3038371205329895 -0.004408389329910278 -0.11359897255897522
0.2703547477722168 0.037128329277038574 -0.11195045709609985
0.2834702730178833 0.06776148080825806 -0.06935429573059082
-0.09547978639602661 0.028876781463623047 -0.23900198936462402
-0.34581682085990906 0.0012835264205932617 0.019167959690093994
-0.1242104172706604 0.034781575202941895 -0.20293694734573364
-0.07053112983703613 -0.044176727533340454 -0.3469642698764801
0.2771826386451721 0.04650378227233887 -0.09309670329093933
0.11334007978439331 0.03250044584274292 -0.2548159658908844
0.2742828130722046 0.01620471477508545 -0.11335495114326477
0.25221967697143555 0.07990962266921997 0.21133089065551758
0.30046916007995605 -0.08408480882644653 -0.0034990012645721436
-0.33805468678474426 -0.024131417274475098 -0.19485127925872803
-0.08447971940040588 -0.05102050304412842 0.20763057470321655
0.127160906791687 0.007188379764556885 -0.26670002937316895
0.28780853748321533 0.056203246116638184 -0.06069296598434448
-0.1866353452205658 0.0022278428077697754 0.24065768718719482
-0.27841222286224365 -0.0016152262687683105 0.05917710065841675
-0.1265345811843872 0.02780216932296753 -0.21754199266433716
-0.2009674310684204 0.01004946231842041 0.25025343894958496
0.04858821630477905 0.0665736198425293 0.3547654151916504
0.25512510538101196 -0.07573813199996948 0.12205004692077637
0.2953687906265259 -0.013371676206588745 0.04620260000228882
0.21813291311264038 0.08434969186782837 -0.16253691911697388
0.13830316066741943 -0.033382415771484375 0.2440868616104126
-0.1242607831954956 -0.029705792665481567 0.2152615189552307
-0.2674557864665985 0.0021495819091796875 0.15292763710021973
0.1806046962738037 0.04052025079727173 0.265932559967041
0.08632630109786987 -0.059052616357803345 -0.3348078727722168
-0.3331637978553772 0.005252659320831299 0.08228421211242676
0.2801501750946045 0.0839766263961792 0.15911757946014404
0.19166815280914307 -0.09189552068710327 0.18081170320510864
0.28687846660614014 -0.07243120670318604 0.05821359157562256
-0.1299610733985901 -0.02252352237701416 0.22646474838256836
-0.16040867567062378 0.01894277334213257 -0.2062273621559143
-0.2406194508075714 -0.006869792938232422 0.06712222099304199
-0.27728545665740967 -0.015062004327774048 -0.20612797141075134
-0.1523527204990387 -0.002458512783050537 -0.26337096095085144
0.12752795219421387 -0.04732733964920044 -0.30604317784309387
0.16902947425842285 0.0332568883895874 -0.22733139991760254
0.28733813762664795 -0.002183288335800171 -0.08735913038253784
-0.26435884833335876 -0.0019470155239105225 0.0304756760597229
0.3009558916091919 0.04842054843902588 0.02730560302734375
-0.18472781777381897 0.015231430530548096 -0.1881924271583557
-0.07635167241096497 -0.010949134826660156 -0.30460911989212036
-0.18238037824630737 0.006821393966674805 0.2547116279602051
0.2705715298652649 0.08121562004089355 0.17902445793151855
-0.28270405530929565 -0.0010628104209899902 0.043062031269073486
-0.07466995716094971 -0.04060962796211243 0.23262381553649902
-0.2500815987586975 -0.0019850432872772217 -0.17676734924316406
0.18048155307769775 -0.04522150754928589 0.2128344178199768
-0.06164127588272095 -0.04232525825500488 0.23741024732589722
0.281636118888855 0.065277099609375 0.1423293948173523
0.2767305374145508 0.02921503782272339 0.13202762603759766
-0.20989158749580383 0.011437058448791504 0.24771642684936523
0.05800563097000122 -0.047943443059921265 -0.3353841006755829
0.18377161026000977 -0.020238161087036133 0.22485947608947754
-0.22933334112167358 -0.0010999739170074463 0.18861109018325806
0.15587031841278076 0.001543879508972168 -0.25531435012817383
0.10752207040786743 -0.02275225520133972 0.2636238932609558
0.222184419631958 0.04343521595001221 -0.178078293800354
-0.08953520655632019 -0.05321022868156433 0.1983214020729065
-0.17117387056350708 0.0050269365310668945 0.25770461559295654
-0.32061246037483215 0.007250308990478516 0.11658912897109985
-0.06157514452934265 -0.03212979435920715 -0.33297064900398254
-0.09057101607322693 0.041637957096099854 0.34230828285217285
0.2510616183280945 -0.03128552436828613 -0.18210464715957642
-0.0940503478050232 0.04985696077346802 0.3525713086128235
0.2755763530731201 -0.05898404121398926 -0.15318891406059265
0.11960750818252563 -0.009365290403366089 -0.2818726897239685
0.09187698364257812 -0.0772247314453125 0.23001819849014282
0.10489654541015625 0.0389060378074646 0.3106986880302429
0.30213916301727295 -0.09676554799079895 -0.08041030168533325
-0.24998408555984497 -0.0311049222946167 -0.2735420763492584
-0.23588848114013672 0.0054090023040771484 -0.15425032377243042
-0.37920770049095154 -0.0017684400081634521 -0.01686146855354309
0.166326105594635 0.01912480592727661 -0.23761367797851562
0.27801352739334106 0.01606827974319458 0.12137782573699951
-0.2314772605895996 -0.01239776611328125 -0.23469457030296326
0.10392004251480103 0.02019268274307251 0.29664623737335205
-0.38453027606010437 -0.0024276375770568848 -0.0219423770904541
0.30157721042633057 -0.07078391313552856 -0.05254128575325012
0.30235421657562256 -0.09056925773620605 -0.020275413990020752
0.20839697122573853 -0.03879600763320923 0.1940234899520874
-0.18770575523376465 -0.02122277021408081 0.09328216314315796
0.25597673654556274 -0.05821064114570618 0.12811285257339478
-0.03428089618682861 0.05140852928161621 -0.23820960521697998
-0.28057852387428284 -0.004612654447555542 -0.150438129901886
-0.19534605741500854 0.01752924919128418 -0.15591007471084595
-0.21956956386566162 -0.012741297483444214 0.11906969547271729
-0.18005478382110596 -0.02262568473815918 0.15896469354629517
-0.16483354568481445 -0.015957653522491455 -0.28328171372413635
-0.0451701283454895 -0.012185245752334595 -0.31081902980804443
0.2945619821548462 0.017707467079162598 -0.048624515533447266
-0.23403871059417725 0.0024790167808532715 -0.1755548119544983
0.24599778652191162 -0.06459659337997437 -0.21067383885383606
-0.21524429321289062 -0.013698339462280273 0.09612441062927246
0.2960277795791626 0.08382290601730347 -0.022210776805877686
-0.12083768844604492 0.024326324462890625 0.3129507899284363
-0.09294348955154419 -0.050229400396347046 -0.35313382744789124
0.26402992010116577 -0.08174046874046326 0.10539466142654419
-0.32214832305908203 -0.015576213598251343 -0.16828951239585876
-0.25867322087287903 0.004396796226501465 -0.09158724546432495
-0.2516750395298004 -0.010464310646057129 -0.21146416664123535
0.2743162512779236 0.05756956338882446 -0.09503081440925598
-0.0072605907917022705 -0.0013279914855957031 -0.3012728989124298
-0.14343011379241943 -0.03136390447616577 0.1882641315460205
0.1640447974205017 -0.08755764365196228 0.19989246129989624
0.15291452407836914 0.034691572189331055 -0.23592209815979004
0.2435985803604126 0.0325167179107666 -0.15804386138916016
0.28756195306777954 0.04419344663619995 0.11097168922424316
0.2079729437828064 -0.04788807034492493 -0.24612948298454285
0.208135187625885 -0.05482324957847595 -0.2505591809749603
-0.10697034001350403 0.03663426637649536 0.3334876298904419
0.15137028694152832 0.04617166519165039 -0.2297447919845581
-0.05696186423301697 0.06040376424789429 -0.21395841240882874
-0.3448743522167206 -0.0005026757717132568 -0.007712513208389282
0.2990419864654541 -0.031281888484954834 0.012957572937011719
-0.07669055461883545 0.052478671073913574 -0.21171239018440247
-0.2112048864364624 0.010379910469055176 -0.16883060336112976
-0.21685880422592163 -7.933378219604492e-05 -0.20758336782455444
-0.18640267848968506 0.031262338161468506 0.30320143699645996
0.3016549348831177 -0.08470845222473145 -0.014159977436065674
-0.23392510414123535 0.007686436176300049 -0.06357669830322266
-0.2816031277179718 -0.00035622715950012207 -0.10885342955589294
0.29880547523498535 -0.033856749534606934 -0.04863220453262329
0.29796260595321655 -0.06567361950874329 0.015050232410430908
-0.1802748739719391 0.016781926155090332 -0.18832901120185852
0.2310497760772705 -0.0743492841720581 0.15373969078063965
-0.312144935131073 0.0005953311920166016 0.02782684564590454
-0.1266545057296753 -0.029777169227600098 0.21278047561645508
0.10135078430175781 0.0676414966583252 0.33522915840148926
0.26709043979644775 0.06569075584411621 0.17563414573669434
0.222720205783844 0.06436288356781006 -0.16724705696105957
-0.19833087921142578 -0.01377817988395691 0.06028139591217041
0.024211406707763672 0.021693408489227295 0.31919336318969727
-0.2517849802970886 0.02936941385269165 0.26818615198135376
-0.1751471757888794 0.043094515800476074 0.3280320167541504
0.24349570274353027 0.023741602897644043 0.18881702423095703
-0.0753445029258728 -0.04279261827468872 -0.34501510858535767
-0.1856946349143982 0.007706880569458008 -0.21367865800857544
0.28217053413391113 0.055739521980285645 -0.07712134718894958
-0.1965227723121643 -0.005343645811080933 -0.2413514256477356
-0.2596227824687958 0.0050411224365234375 0.18031227588653564
-0.32330647110939026 -0.003253936767578125 -0.06938683986663818
-0.11375802755355835 0.005605816841125488 -0.26842546463012695
0.16012614965438843 -0.029907673597335815 0.23479139804840088
-0.2746413052082062 -0.002003967761993408 0.0790625810623169
-0.15101420879364014 0.027671515941619873 -0.1899241805076599
-0.052338480949401855 -0.004932701587677002 -0.30135196447372437
0.21073979139328003 -0.08583730459213257 0.16860663890838623
0.2585756778717041 0.04478931427001953 0.17801284790039062
-0.39615413546562195 -0.0005949139595031738 -0.004900753498077393
0.12061750888824463 0.04842168092727661 -0.2416190505027771
0.2747974991798401 -0.08160260319709778 -0.1701701283454895
0.0019407272338867188 -0.028468400239944458 -0.32829487323760986
0.2763538360595703 0.09420835971832275 0.17553728818893433
0.15273690223693848 0.06771278381347656 0.30585622787475586
0.16563904285430908 0.06573128700256348 -0.21075710654258728
-0.03441739082336426 -0.055666834115982056 -0.35960572957992554
-0.3063368797302246 0.028058528900146484 0.23115843534469604
0.3002927303314209 0.0930587649345398 0.09108513593673706
0.29466843605041504 -0.012595921754837036 -0.06301882863044739
0.299976110458374 -0.008861303329467773 -0.010257244110107422
-0.1700899600982666 0.0021227598190307617 -0.2421465516090393
0.09806382656097412 0.018459975719451904 -0.269799143075943
0.3037199378013611 0.09837734699249268 0.060909926891326904
-0.17921975255012512 -0.03848692774772644 -0.3188668489456177
-0.2908467650413513 -0.00042450428009033203 0.03532367944717407
-0.10534006357192993 -0.02583414316177368 -0.3187912702560425
0.18469536304473877 0.01327657699584961 -0.22831076383590698
0.2661038637161255 0.06774473190307617 -0.10716336965560913
-0.20696866512298584 -0.01075446605682373 0.05224871635437012
-0.1866789162158966 0.022916853427886963 -0.11775949597358704
0.15242743492126465 -0.031246542930603027 0.23831689357757568
-0.21228712797164917 0.014255046844482422 -0.09237715601921082
-0.07918649911880493 0.007054150104522705 0.29885369539260864
0.10422110557556152 -0.008976191282272339 -0.2880212664604187
-0.20746630430221558 0.013011395931243896 -0.1595863699913025
0.2549283504486084 0.08533084392547607 0.2106393575668335
0.27454936504364014 0.058805108070373535 0.15542387962341309
0.19079649448394775 0.0738789439201355 -0.19027388095855713
0.12600183486938477 0.06338506937026978 -0.23020756244659424
-0.04331463575363159 -0.02112334966659546 0.2718145251274109
0.2339109182357788 0.09075284004211426 0.24515610933303833
-0.3082038462162018 0.0024343132972717285 0.08135402202606201
-0.20259299874305725 0.002181529998779297 0.22780561447143555
0.017344892024993896 0.04544556140899658 -0.25693413615226746
0.2996896505355835 0.04418450593948364 -0.003871053457260132
0.20208609104156494 -0.02418696880340576 0.2076960802078247
0.006701827049255371 -0.02863377332687378 -0.3279862105846405
-0.18076848983764648 -0.01708465814590454 0.18635499477386475
-0.161442369222641 -0.030078142881393433 0.15900373458862305
-0.301453173160553 -0.008337676525115967 -0.1481170356273651
-0.2493027150630951 0.005008399486541748 -0.057210445404052734
-0.29574084281921387 0.010156571865081787 0.16556894779205322
-0.08779704570770264 0.011169195175170898 -0.2707574665546417
-0.2339305579662323 0.0018708109855651855 -0.1788599193096161
-0.024726927280426025 0.05765599012374878 0.36089539527893066
-0.3450257182121277 0.006091594696044922 0.07893586158752441
0.1924675703048706 0.015465795993804932 -0.22087007761001587
-0.22718653082847595 -0.004896879196166992 0.03165996074676514
-0.08600986003875732 -0.026956677436828613 0.2475840449333191
0.024508357048034668 0.03605693578720093 0.33259594440460205
-0.23942536115646362 0.008107662200927734 -0.09501594305038452
0.16194450855255127 -0.013530105352401733 -0.261441171169281
0.12667763233184814 -0.05707240104675293 0.23390406370162964
0.039233624935150146 -0.06798917055130005 -0.35882189869880676
0.11184102296829224 -0.061298370361328125 -0.32502952218055725
-0.12035080790519714 -0.03628993034362793 0.20343172550201416
0.26737844944000244 0.09193402528762817 0.19290459156036377
0.06504112482070923 -0.05749565362930298 0.2472611665725708
0.14578813314437866 -0.04465290904045105 -0.2934579849243164
-0.01115146279335022 0.025767624378204346 0.3264724016189575
-0.31623920798301697 0.007157325744628906 0.12120890617370605
-0.042158037424087524 -0.006349444389343262 0.2896069288253784
0.28314584493637085 0.045236289501190186 0.12509220838546753
-0.186008483171463 -0.0010884106159210205 -0.23821064829826355
-0.2653670012950897 -0.024472951889038086 -0.24663233757019043
0.2694202661514282 0.09520715475082397 0.19115394353866577
0.22411668300628662 0.08997982740402222 -0.1541929841041565
0.023393988609313965 0.019236385822296143 0.31700706481933594
-0.13699448108673096 -0.005099356174468994 -0.27610456943511963
0.29198533296585083 0.009204745292663574 -0.06437382102012634
-0.15093261003494263 -0.03256005048751831 0.1704654097557068
-0.2865605652332306 0.019853293895721436 0.21657532453536987
-0.1734555959701538 0.027697205543518066 -0.13103267550468445
0.2524878978729248 -0.04083511233329773 0.14132505655288696
-0.24930784106254578 0.020985782146453857 0.24706196784973145
0.30144405364990234 -0.08982276916503906 -0.011056751012802124
0.30024242401123047 -0.029410839080810547 -0.023100942373275757
-0.11508634686470032 -0.0035476386547088623 0.27123498916625977
-0.29531070590019226 4.017353057861328e-05 -0.005105912685394287
0.20468413829803467 0.023961544036865234 0.23398184776306152
0.14750385284423828 -0.017849355936050415 0.24947327375411987
-0.12440222501754761 0.015658020973205566 -0.24466150999069214
-0.08011120557785034 0.008392274379730225 -0.27751055359840393
0.2520555257797241 0.06254422664642334 0.2000659704208374
0.16342127323150635 -0.035335391759872437 -0.275258332490921
0.29558807611465454 0.008939981460571289 0.055961430072784424
-0.06654217839241028 5.257129669189453e-05 -0.2924595773220062
0.11992919445037842 -0.009982049465179443 -0.28217512369155884
0.28707343339920044 -0.06689739227294922 -0.12774276733398438
0.2676994800567627 0.06182444095611572 -0.10659980773925781
-0.19963854551315308 -0.00144881010055542 0.2195214033126831
0.012733042240142822 -0.06756818294525146 0.23564058542251587
-0.37422728538513184 -0.00654330849647522 -0.06213995814323425
0.10929363965988159 -0.04906439781188965 -0.31663772463798523
0.29862844944000244 -0.04243001341819763 -0.056945234537124634
0.2741893529891968 -0.002180755138397217 -0.12288287281990051
0.14555829763412476 0.03376740217208862 -0.24033096432685852
0.2831991910934448 0.07484036684036255 -0.06770026683807373
0.29414212703704834 0.03589630126953125 -0.04359063506126404
-0.1822504997253418 0.02394038438796997 -0.13862574100494385
-0.15587490797042847 -0.03472191095352173 0.13924509286880493
0.27431225776672363 -0.026238471269607544 -0.1359310746192932
-0.28657209873199463 0.00014984607696533203 -0.08520296216011047
-0.052952200174331665 -0.027264386415481567 -0.3277727961540222
-0.044834792613983154 0.05141681432723999 -0.23350626230239868
-0.19527667760849 0.004240691661834717 -0.21496492624282837
-0.18327564001083374 0.020692884922027588 -0.16377249360084534
-0.07189434766769409 0.05241650342941284 -0.2155952751636505
0.2558462619781494 0.03667163848876953 -0.1380925178527832
-0.35604357719421387 -0.006737411022186279 -0.07578015327453613
-0.18056660890579224 -0.01934868097305298 0.17654871940612793
-0.014333993196487427 0.06570667028427124 -0.22961664199829102
0.11665678024291992 0.06920623779296875 0.32879722118377686
0.04144090414047241 0.01290881633758545 0.3085200786590576
-0.027882158756256104 -0.0008249580860137939 -0.2996107041835785
-0.08500039577484131 0.013952851295471191 0.3067866563796997
0.10822737216949463 -0.05748149752616882 0.23958104848861694
-0.015890806913375854 -0.0038439929485321045 0.29551684856414795
-0.026453793048858643 0.055939316749572754 0.3592374324798584
-0.18382084369659424 0.023299455642700195 -0.13947966694831848
-0.23815041780471802 0.008282244205474854 -0.10990771651268005
0.21449673175811768 0.06613904237747192 0.25145888328552246
0.032807886600494385 -0.03089088201522827 -0.3262954652309418
-0.22562840580940247 0.0004050135612487793 -0.0024580955505371094
0.012735843658447266 0.03557121753692627 0.3339979648590088
-0.00621873140335083 -0.045695215463638306 -0.34646695852279663
-0.34595081210136414 -0.0013223886489868164 -0.019688010215759277
-0.09214538335800171 -0.049092233180999756 0.20414769649505615
0.29593193531036377 -0.008095264434814453 -0.053480684757232666
0.02872002124786377 0.02155834436416626 0.318408727645874
-0.1913151741027832 0.03767871856689453 0.31336426734924316
-0.22734540700912476 -0.0019238293170928955 -0.2033742070198059
-0.33509117364883423 -0.011933565139770508 -0.1353672742843628
0.2934836149215698 0.06578677892684937 0.10376572608947754
-0.17173027992248535 -0.026416778564453125 -0.29987862706184387
0.2934439182281494 -0.055848538875579834 -0.09669333696365356
0.24773406982421875 0.04570680856704712 0.19600319862365723
0.2999374270439148 0.001737058162689209 -0.005320072174072266
-0.1829679012298584 0.022678375244140625 -0.09281221032142639
0.12341922521591187 0.017591893672943115 0.2860829830169678
0.28879600763320923 -0.0298803448677063 0.06740987300872803
-0.25874248147010803 0.0016204118728637695 -0.1386393904685974
0.10066038370132446 0.04396945238113403 0.3165367841720581
-0.16651707887649536 -0.011466920375823975 0.2213958501815796
-0.2193557322025299 0.009022355079650879 -0.05427393317222595
-0.1895754337310791 0.010001957416534424 0.25753045082092285
-0.017016708850860596 0.03500521183013916 0.3363906145095825
-0.015965938568115234 0.04688960313796997 0.3487201929092407
0.2354457974433899 0.09002888202667236 0.24262559413909912
0.29927098751068115 0.0613938570022583 0.0679013729095459
0.30007994174957275 -0.02036222815513611 -0.017641395330429077
0.24845385551452637 0.06511151790618896 -0.13617807626724243
-0.20962774753570557 -0.01558646559715271 0.11755812168121338
-0.10349062085151672 0.04490959644317627 0.3451690077781677
0.14919710159301758 0.0706249475479126 -0.2164667248725891
0.02506619691848755 0.03011375665664673 0.3269338011741638
0.2984607219696045 0.005967855453491211 0.03349006175994873
-0.3619084656238556 -0.015733808279037476 -0.13597744703292847
-0.2536287307739258 -0.00024968385696411133 0.0027322769165039062
-0.24578267335891724 0.01160728931427002 0.22066110372543335
0.2786372900009155 0.010217726230621338 0.11660420894622803
0.24370217323303223 0.05840587615966797 0.20998811721801758
-0.28373682498931885 -2.384185791015625e-06 8.320808410644531e-05
-0.09684327244758606 0.05117565393447876 -0.1946060061454773
