ply
format ascii 1.0
element vertex 782
property float x
property float y
property float z
end_header
-0.2518056348926866 0.17623637686967764 -0.020399362491382047
-0.24039326501820518 0.15867147721013217 -0.10680723285176799
-0.177127388017143 -0.13270987413995797 0.04614260552733892
0.16365915195581215 0.23732611791389255 0.033711670235084513
-0.15878214873677426 0.12632273341339817 -0.12042227822162221
0.09946696800311285 0.10344760317315344 0.12393394369093791
-0.12357988705385324 0.1876809744392836 0.08090003777005333
0.30902363430718655 0.2454667137874954 -0.10589388500650244
-0.18777013759519623 0.2920811989156426 -0.05148396521865592
0.11240962096735543 0.06752862119377227 0.09743924349835192
-0.14316920849821715 0.2918215481397309 -0.04670389371928826
-0.057547592359625935 0.06728466488110219 -0.13600769002069724
0.050944330201457985 0.0641185513930101 0.13932909197444127
-0.043909478101666524 -0.07289680189315441 -0.1377889663078851
0.2400713785816989 0.25210226712900236 -0.005175363472488188
0.007165892891602799 0.033461223631054055 -0.12187113775641163
0.08754196436360015 0.21510514538238612 0.06555807058827381
0.29410241684101773 0.1998243560212204 -0.0033875793588290094
-0.13294761139247474 0.11610652946214992 0.10853690471403162
0.006972812879419962 -0.21177688464042602 -0.15009253802177283
-0.22661818053915783 0.2320328964156652 -0.11332299403138078
-0.016445789116657512 0.11715551022668125 -0.13302390106117365
0.09249624358870902 0.2095843639066954 0.06897153467110134
0.15907310602985267 -0.09579683534622287 -0.008081712434565676
0.09233506687998529 -0.29360941682085734 0.09978591298855878
0.18844450900388565 0.2753362822794163 -0.011570278360674879
-0.0662245457233354 -0.17383453520633863 -0.13657888270101817
-0.05043122396242494 -0.25292340757423143 0.13249971796574236
-0.128676707798819 0.16287612739394589 0.09452302762813575
0.014353234782511295 0.049734624101242395 -0.12468750492339482
0.039954907963368175 0.21446047795763742 0.07264892539637263
-0.11175143563705485 -0.0011784850906755191 0.11553828592803433
-0.004597877857043552 -0.15482427307802207 0.15375066694039805
-0.1649832260675844 -0.04372166907657637 -0.0930182083712986
0.05777714420618803 0.031533689164022785 0.13919472894158383
0.07991338688069331 -0.11665685885562947 -0.10541694765797971
0.09318071624954488 0.02921289044978307 0.11873629601018866
-0.16037892410955537 0.05058973167260239 0.048068178597452535
-0.06126006731727703 0.08922612162402982 0.13270595948282798
0.07272782371240324 -0.06003973439845245 0.1257184959821183
0.1335203578842555 0.22430284098062273 0.05103335399760048
-0.1540180263083917 -0.18441032695349208 0.0740917430503064
0.07974053261238846 -0.0798457325010111 -0.1153410809298482
-0.18010982616636545 0.033103287405837886 0.004932725546596942
-0.10850197658840956 -0.12234945528868749 -0.13004601562758972
0.20753401591535295 0.17011855697117723 -0.02792335153225694
-0.05050609964273705 -0.2369413492861527 0.13782129219034836
-0.3234731802941384 0.26519854082131766 -0.07201306396162298
-0.11156245776379241 0.1595477011211298 -0.135518908697805
0.13795522238940994 0.276069650100867 0.011856589871121396
-0.13731225123744106 0.24446682513723464 -0.11651365168258113
-0.2482954294787066 0.26907902279992646 -0.06749107160188253
0.14342630452669886 0.08737709712682251 -0.06832446128516764
0.20485894131787172 0.2689895477804861 -0.07642384217161877
0.05740350266582119 0.09900048038851404 0.13736149281508062
0.19631646650550985 0.1881377033631877 0.015167815045869948
-0.18696238420350844 -0.03381499063732553 0.00745082656200605
-0.09914306966330513 0.04223737266294511 0.12361494490753235
0.1787951159901974 0.2858213769944705 -0.03888779319017517
-0.2016123150908873 -0.2221995531791613 0.04089305169177608
0.10050619332576201 0.14674759005941204 -0.13176248147268244
-0.09904341688251578 0.22481030645939687 0.0541401498398749
-0.06869531859221423 0.18746939445298624 -0.134098585758707
0.14227069707212833 0.11971945562321341 0.009950021025218338
-0.11737857511868847 0.035869103307610894 0.11631735683241497
0.09321561433693176 -0.08571276309374963 -0.11120317913757012
0.1974021415386174 0.2770457873111404 -0.0279163249852453
0.06795884557167481 -0.07080487371563195 -0.11740375720016963
0.24964788477593297 0.2644397319335991 -0.08183604184725927
-0.16886592306693723 0.029408518599080117 0.02411071191927062
0.141562390859546 0.10453633892723048 0.06650381256426693
-0.2162760896399982 0.1482314385840534 -0.04399730871499642
-0.054330760408807084 -0.11415972689751579 -0.11823737668586301
0.16846059597911495 -0.1394835461694283 -0.01769886287324375
0.13528583162087604 -0.06450218056220101 0.04524454983385054
-0.0519608484700913 -0.21866702754246958 0.14221372583007696
-0.08559615541415061 -0.2219997035040717 -0.1535966546555129
0.08742583340901157 0.09358580748209341 -0.12354186243171238
-0.07064481197847318 -0.15992793510142012 0.14857444390548333
-0.16434878421635535 0.11909082589335764 0.0696085427601157
-0.2564583678606011 0.16545510852162607 -0.048671743044767714
-0.20701891778136794 0.15839424470552232 -0.013891045865142736
-0.15762902258477374 -0.21379903987883775 -0.10855254001044011
-0.17324075917802004 -0.04716899144771764 -0.08013018906408251
-0.1329437058788654 0.1388987070536656 -0.12931746643812495
-0.007654671783569929 0.015289662491310469 -0.1301487181317764
0.018965878432272633 0.15682357054701054 0.11263020097867413
0.16027144497645016 -0.11246351416377268 -0.035869336517430406
0.15478728629236752 0.26004877096659 -0.09740550775928992
-0.04904202243489732 -0.07088360604382829 0.15296927630738705
0.10302753532756555 -0.07097209999430987 -0.10155947521612486
-0.19882749817769624 -0.2891648092113853 -0.03360235228950372
0.10975838822466576 0.012864043022129167 0.09894675936721246
0.13399231326303268 -0.02505673019188678 0.04219321386365264
-0.28727955065137034 0.16502523847817718 -0.05408823591333006
0.2809179345252744 0.20140769252084317 0.000777980632086588
0.14323684240790935 -0.06256449629747396 0.027642845580280673
0.15346042164023427 0.1357892333674053 -0.007681669655234249
0.09145931207884421 0.08290315689920978 -0.12023447038634161
-0.20211978997955396 -0.21361039875439322 0.01190904182057199
-0.33166083544369535 0.18608407049401524 -0.10975131196346485
-0.1945939952759135 -0.04248991685470679 -0.009508318030718183
0.07132782188082774 0.22794310896595862 0.056045867750073995
0.08491851243238749 0.07473220505864121 0.12948350831735686
0.2882358494867465 0.20449569634594883 -0.00023282886800212132
0.029734154452451537 0.02290559280203116 0.14445701971684669
-0.19222830514435676 0.2257869756848542 0.0370924405054107
0.16347682204904584 -0.2556745935248503 -0.019925805771483028
0.20378164029776102 0.24882562865731978 -0.10059511827092163
0.03605477311919626 -0.017937099434734077 0.14198388954301086
0.06343556170917068 0.20592566270031726 -0.13116119049371408
-0.1100977472588497 -0.013474492676125027 -0.12654607224673356
0.005607266733602458 0.17052417686861376 0.10224296722775043
-0.09828161205805275 0.27889165826865464 -0.08247097431878618
-0.19401879035198996 -0.20864168186566287 0.04311206559345353
0.18131937887674343 0.2811772102691839 -0.05749530408925018
-0.19360237366808447 -0.28489944617404717 0.03635266117745952
-0.11704930110504518 0.20951555632572144 -0.12944871371902
0.0004454601278429068 -0.1623230392563248 0.15272044062416015
0.11014830955804256 -0.2243060997721095 -0.11351994155546456
-0.08519929570604406 0.11625850032904081 -0.13284289882125389
-0.18569059746302627 -0.1354975067748697 0.010328931779453415
-0.3188185163880275 0.19017091507066106 -0.11398510423216174
-0.01662202529528538 0.19550237417698255 0.08667722383745224
-0.13055039562720286 0.20127847240057894 0.07000150366271153
0.14098648180249507 0.07168573790599153 -0.07495053432323688
-0.20193175412065087 -0.1302602244425448 -0.011773661223422997
0.017442806782844187 0.15330682711686175 -0.13410168359672792
-0.17444114236090374 -0.13544853056367792 -0.07628262337823608
-0.16713386722319573 0.033847162371823156 0.027646955859142223
-0.1879810872624339 0.15461063065674233 -0.10862887075651775
-0.167486313529486 -0.07534416862471943 -0.08539267362945668
-0.05553653836458051 0.0031527988236359004 0.14100181653926805
0.09745918104201241 -0.022755436708190954 0.10082877203127508
0.024877382184474644 0.14584017550668352 0.12026291953125309
-0.2039892968617762 0.16941489578420518 0.02676721095468655
-0.08265653321085012 -0.1469465275094243 0.14561881506562732
-0.10141803921417385 -0.25911912495580214 0.10687562777940206
0.26018877879935415 0.15645864411862434 -0.09560351326186661
-0.10184154546710432 -0.08704904808669199 0.13366480468642944
-0.02475965137213309 0.20683863541156688 0.07749305296063337
-0.15713903142905156 -0.2807504779805539 0.08506177543292985
-0.05465235362879656 0.12474236838052723 0.12272273414912929
0.14937731225241216 0.13877806562740297 -0.10896786216162949
0.03879846532850478 -0.10367131098100543 -0.10426875053512666
0.26680957933600824 0.20644082459615923 -0.1140072366564042
-0.01497506160162485 -0.15914729392938504 0.15250249975849056
-0.14106899746831736 0.25693045793554803 -0.11095110188741132
-0.16995493607743434 -0.1993620895944026 -0.08697080190993224
0.04664544991533066 0.24918113292139865 0.0391015091175693
-0.11789681098515005 0.1623657965545517 0.09904548205867889
-0.1422953890771687 0.15527050383969188 -0.12917166147354414
0.15602658151371915 0.1443927366643693 -0.0014084159345219916
0.2728665375507073 0.2666119396132004 -0.08284391186148961
0.0621840250315083 -0.09059475327733049 -0.11145935100065141
-0.02870048354684171 0.22367223998120817 0.06338987180148681
-0.33215687847660413 0.17246809759558335 -0.04038410247833621
0.03381607704592598 0.14430477565166003 0.12418820742154396
-0.1576296023757419 -0.11147004379410994 -0.092919484172736
0.2143995684626153 0.15100795296923541 -0.09776639306423357
-0.20226648123526164 -0.29162968330663247 0.0009411473236879686
0.09494052453037492 0.24046973764784543 -0.11697132308640226
-0.17325772317854768 0.10432896998749432 0.04297462468181232
0.22266914186609643 0.1549975308547647 -0.10445488325989438
-0.15249198289388718 -0.23227071117472356 -0.11782712360340969
0.016174353946758663 -0.14010769734302864 -0.13227405658121957
-0.10198230769183746 -0.18828936275338698 -0.13592453847173813
0.17909254855140821 0.2092768366802191 -0.11377397984618295
-0.16886611987121525 0.08497202944252984 -0.1033348291156681
-0.20906800740470005 0.2255871051027409 -0.11405547451838478
-0.21268205735461898 0.15145792603462327 -0.031319999753137685
0.050881371865529344 -0.17762982161288643 -0.12948067753424788
-0.0958244073880249 -0.006432326636418958 -0.1304080037791986
-0.11370836061614033 0.15873980600130058 -0.13505728832234956
-0.17491867702124117 -0.14331662863931607 0.03664504209941713
-0.26305520339963817 0.22830041810956764 0.013262314624499536
-0.20478256210904475 -0.2809662669959183 0.0061332658746119295
-0.20384443991971746 -0.07392251881082643 -0.02899897031260567
-0.10766379090440333 0.1679932691817667 0.0983176258648677
-0.04744537308826528 -0.06230482304859644 -0.1412918487012516
-0.23701947313026367 0.17701042477823756 -0.009775165276378481
0.0834834783131933 -0.002565619323919358 -0.12131718590535777
0.09898803956868434 0.1618662841388988 -0.1325239977639114
0.06120423032914363 -0.004375882201257148 -0.1269121947638229
0.1501297197150641 0.1441324344192911 0.040167855455775385
0.2945814030165547 0.23706200395446292 -0.0025721312511384543
0.06460328246708484 0.021381478771422123 -0.12871772028113163
0.0728850116233641 0.26475968209521294 0.018786285587568723
0.03128977970398602 0.04018453475693538 -0.12692199700667509
-0.12624732393359378 0.21676559246008537 0.059033123773561735
0.15376611494879794 0.2318325971186058 0.03813900853759343
-0.18267480793350674 0.22091881501505942 -0.12435705415141685
0.16457517994880913 0.1315142526721725 -0.03879286965301899
0.14016882425343247 -0.063885101881657 -0.08142150540210524
0.017228489393888588 0.20688680846771668 0.07874950882995442
0.026939679483830074 0.19575401445523474 0.08787304256869814
-0.18381146049963684 -0.09332801889457036 0.04179381821836061
0.14010676908627007 0.07603321038550016 -0.03141907563249792
-0.05806128450740076 0.10455110998221366 -0.13652890367891865
-0.33299798574275985 0.25544083874324763 -0.09944952595005825
0.14616693837094386 0.0774179897516684 0.036907705909528424
0.13810401190092794 0.19509703956730856 0.07100655055181507
0.13873637288985477 -0.1589268313759934 0.03655681420060034
0.28837590059114904 0.15398862000184152 -0.08378697308737845
-0.07199934963121918 -0.23915042708346898 -0.15679259244507376
0.1584303595002641 0.13101761458110023 -0.025431246050560737
-0.11161564344087307 0.009290455807480768 0.11596341648544177
-0.13699340467318752 0.04582772187733395 -0.11224798568049767
0.08912698014445836 0.25482724652626954 0.02889603131226487
-0.1892422105244592 0.2728281099235597 -0.08866893787599721
0.07620383287285587 -0.028653104237044334 0.11574300510358768
-0.29681619620584065 0.2579264226028055 -0.0191283076152603
0.27266558331666885 0.23093260712935418 -0.11269474020089956
0.12095235826188086 0.2949266705360673 -0.03135938174267512
-0.06157110413336103 -0.17840033382145637 -0.13841823771350517
0.14164262333779207 0.08584225169367049 -0.08539270604122699
-0.12522048029576852 0.0018380405776069423 0.10872593529408386
0.11251783535459835 0.01836435810116986 0.0858555648160431
0.10380129490905309 -0.16278342803245938 0.10541003843693586
0.1632935088737668 0.2794718608026877 -0.07359204507280794
-0.08934819057514808 0.27565217343975623 -0.08670743335663865
-0.12408293796652803 0.051823579844591204 -0.1225026390635679
0.1592911811328867 -0.13700947721850099 0.02262668813942105
0.12500787908334596 -0.1611651177248657 -0.0825116009079287
0.13656164646350483 -0.06715124469978527 0.04237291293886378
0.08768933706116673 -0.008500992736682691 0.10825322794438619
-0.1247218475540317 -0.12185514866484418 -0.12614591253829874
0.1091551418761673 -0.04960773916883016 -0.09534768584825601
0.04960540864139091 0.1585854741245645 0.11928025867439432
-0.1837341472704199 0.13238655038335445 0.04346655464495845
-0.2105359923457697 0.23480912363173018 -0.11093339718736103
-0.16923226200027558 -0.16068589272093808 0.04874280172874683
0.07950775603476176 -0.10823982443944621 0.12412376802024438
-0.16911269468229048 0.16631096188390065 0.06951808172645085
-0.15135868149968812 -0.12653357990945255 0.08992101671892783
-0.1230287208023592 0.021348636765366948 0.11184046983488108
0.13747323614810075 -0.1516754684261925 0.04474353694039836
-0.12723693508802697 0.27661933859663507 0.007329398736415441
0.06081794267753243 0.18532495776121 0.09808689042987251
0.12570981790819555 0.013692053370213859 -0.09346843192648283
0.04909303013380423 0.021077822649695405 0.14014474055821233
-0.08286875221342103 -0.173769362021335 0.1397785055464066
-0.020044438100150573 -0.09643735447494349 -0.11339033854601116
0.07821838047111264 0.052865846079677335 0.12803229209524988
0.0401208361547654 0.1876506634732865 0.09573909551003024
-0.29823292861920453 0.16665408598775414 -0.09703469631811518
-0.08109239294665276 -0.071437384839285 -0.12595681374076517
-0.22132493120869925 0.2159678071626603 -0.11803396390477698
0.15859712291496056 -0.2453514573946854 -0.04064252630710022
-0.17126827429702854 0.14404978387446457 0.06576157013336906
-0.18433365998811876 0.24167288875084733 -0.10889433588145848
-0.1473596926334619 0.275398083020065 0.011237920954884467
0.09878020357857191 0.19444454668029945 0.0816583795657524
0.1577681627157976 -0.2165108114629696 -0.026986225288219673
0.1422732743907356 -0.04604406789032002 -0.03153754557487123
0.09582795670198506 0.01672195317463262 -0.10868338829340571
0.0576525212929278 0.0036469788824460905 -0.12683897855881165
0.29335529993848447 0.25486552398113727 -0.0203378522674424
0.08586372663523012 -0.009218644062807865 -0.11877227779292357
0.06123341422545406 0.020291035843157286 0.13741127294792624
-0.15719361036896312 -0.012106098056594206 0.05185500234067906
0.30777747797907823 0.24384317922495097 -0.008690582021716914
0.0629070714149472 0.16674682314504372 -0.13882114667806147
-0.018554728776334052 0.06754571676750797 0.12962607107449187
0.016011012833550286 0.12924921324845082 -0.1335214103562051
-0.18409958379480124 -0.17068146773685522 -0.06961186014358582
0.07219644322712802 -0.08358969730546878 -0.11415445690143398
-0.18910001234050577 -0.16107054639170712 -0.045366842755795604
0.27056140541570894 0.21647294917575585 0.005385801127897437
-0.06679982785123866 0.06092735889506853 0.1360649945706367
0.14575602335044058 -0.08406064759596947 0.025064794115671397
0.16966271830040688 0.2162823844303552 -0.11401736567421435
0.2654466371396934 0.18329221130197634 -0.09999283971889275
0.26792538975711117 0.2609105419910303 -0.09132500559605301
-0.20431716185351614 -0.2461318777488281 -0.004008873194224964
-0.17811869005420713 0.1872401116211342 0.06011337015103481
0.035586382100823793 0.1523391763578484 0.12062069090464032
-0.16807678948288957 -0.18535084330599322 -0.08996116491168787
-0.18846612928533568 0.013217357267399973 -0.00794423409904711
0.1318443163475575 -0.2531293249889483 0.08612957047631611
-0.17653519226104866 -0.1140475307579081 0.055086371867703834
-0.1749116148795678 -0.24607932508330432 -0.08520824952703247
-0.19877485672605408 -0.27043595964261913 0.03509113527311773
0.16934630470749962 -0.23295239345774899 0.05593380754682542
0.07350405655177453 0.2872814879316409 -0.022342865071258638
-0.3395194148107256 0.20300071396966043 -0.009824726494668087
0.06994482481615916 -0.29070451435129074 0.108975025526282
0.10083893947559235 -0.2191274803953394 -0.12175931763442714
-0.09121606879517849 -0.23369670884126487 -0.15594241624068697
-0.13704193540966558 -0.23636207888114705 0.0928020636853194
0.09291549262585785 -0.07453507420495159 -0.1116807657963722
-0.01814356605368275 0.23750744926405098 -0.1176068048452332
-0.15062132800296668 -0.016783060424108927 0.07377466553225157
0.2179263262586002 0.17899155720226728 -0.012537455233877252
0.1123310955100145 -0.22520682157592609 0.09633292238259906
-0.1605688835212754 -0.13019793464741586 0.07954441013607441
-0.13189453934644071 0.19986178211284408 -0.12885830386373592
-0.2575709784523137 0.25875484971748697 -0.09018892979223495
0.0904397298148892 0.16252175532818455 0.10976750965157549
-0.019894198407427333 -0.14318165020390938 -0.1361893830420808
0.1487349770025479 -0.04990110237968893 -0.022476514864033174
-0.12222229014284187 0.01633639088506713 0.11209715895690046
0.18861534060540996 0.25153609706381896 0.02170070535403387
-0.3056117994336612 0.267736365586535 -0.04478886770735919
0.07598324512024376 -0.1459862769444722 0.13481570189029773
-0.13679700836942707 -0.23399467512686012 -0.13416752223758321
0.2586580590154681 0.2100336850814231 0.008805370887670387
0.13647014936572677 0.07841800562676653 0.06382259451653352
0.04849611886340612 0.2604864975050157 -0.10892086650941027
-0.1890369420583707 -0.24873696655865596 -0.05501654270992113
-0.013954689311007394 -0.0858059813347104 -0.11712762398522288
0.17425099791430373 0.2357928495615237 -0.10724254847776055
0.13419648349229749 -0.20607559130177514 -0.07332077145298276
-0.15666369318638237 0.044260887062789626 0.05354218602575669
0.14385969212018418 0.1025626676468703 0.025135787087849366
-0.048421154903029076 0.2628667848469061 -0.10820839926818179
0.006053456311655278 0.1439996794618339 -0.13248822995885215
0.09677586784372816 -0.18609679697106304 -0.11052021895558933
-0.13831180642332505 0.0770792023242838 0.09136965580901107
-0.13242742838177357 -0.1545372966085712 0.11057441897977903
0.160237786040613 0.15711937037499757 0.005910599700384715
0.17338651829097065 0.1732600433075953 0.005708300505371876
-0.10278814951274112 -0.14591782664350975 -0.13652176868606397
0.06101902744914021 0.2857170875313554 -0.02218039763153183
0.1181453285588318 -0.16360633395144372 0.07272089298781913
0.14725186904421148 0.10368750262208601 -0.060099327284419
-0.16037780908984664 0.2885680230502338 -0.05830020676827299
0.14296340248093783 -0.21190750649431472 0.06465210041858663
-0.09479011325664903 -0.18338282485367144 -0.13557868645506393
0.22940793239793544 0.19112220301254623 -0.1079458354872135
-0.0533110937554781 0.2639973671531005 0.023513956517769226
-0.1801108068165629 0.04012710972803865 -0.04337763979075521
0.16155930399885204 -0.18173904735789814 -0.016183228813489315
-0.023252820452611477 0.05900643391270019 0.13126721682817252
-0.15980439615697406 -0.11931853318810878 0.07655088417327739
0.31183763013622784 0.24656804269395838 -0.10451053031702993
0.15353511158908367 0.2772599239166077 -0.07996600814754182
0.0009281464082119342 0.11757060940480382 0.1192248177996861
-0.08941758536297385 -0.013924387566426543 0.13057619865859924
-0.16562897467215593 -0.08651327387039959 0.07011767135534247
0.26928221709688255 0.18707857036105072 -0.10236547464131092
-0.07455914144307539 0.25202441816531407 0.03157534866528723
-0.11628423279404156 -0.1438929977011753 0.12639056211499816
0.13565018123179634 -0.05496490715730514 0.043913498281448714
-0.025267147904459913 0.24199481876529422 0.04608711672380641
-0.34519669999025326 0.2580258305587847 -0.09560803058325408
0.0649060795224229 -0.039064412898752336 0.1360645497762137
-0.13330882847853556 -0.19559712626980003 0.09474120678686063
0.27825532616456894 0.15961971226355395 -0.06210875792896546
0.0632364303717796 0.2604124634402757 0.025135993757627574
-0.14804793210657585 0.1147032623291215 -0.12109276208749745
0.03374708319387359 -0.0394704011758284 0.14342471067440377
-0.1946395234782356 0.22761959933898226 0.03532998010676363
0.14904197416056636 -0.2924985064648208 0.05933806433911361
0.025771849501932096 0.2651923869138193 -0.10903543164240408
0.28073817481681435 0.1785596669606952 -0.027425214531781553
-0.16050645548881184 -0.1483376967967478 -0.08512525932883314
-0.07580035158164537 -0.16909733256302908 -0.13476267752838872
0.11033671736392472 -0.12031963304415552 -0.1041401122438345
-0.11982311754961197 0.25994697994441757 -0.10248287017636938
-0.10365867114135288 0.12719851816118105 -0.13455262879250227
0.0843764769695341 0.20652219975338423 0.07361353511113891
0.17548937041153573 0.2867559960653315 -0.04407794990912546
0.013919054797856892 -0.05325335803408939 0.15154090666120718
-0.1631105298712542 -0.023134838394029484 -0.08873578620958325
0.016712267238027455 0.25243099954057974 0.03806117144176264
-0.25773276525500843 0.26894651404697695 -0.06455595172739834
-0.19153674719361471 0.27845980105106993 -0.08433380497204268
0.1784701187588627 0.1493504489232781 -0.07835652763110158
-0.19889554473658205 0.22773744015260222 -0.11259186485837705
-0.17785506940757442 0.1986740952082614 0.054904993231050886
-0.13177968629610845 0.08353808320608458 -0.12236562395989915
-0.10236608114758751 0.17057688145025887 0.09753280640582089
-0.2774674277847933 0.2437503694744754 0.00022709872330228375
0.13292225577079134 -0.007187286250821293 -0.07721384455156834
-0.09273687967785502 -0.16217301994251865 0.13569736785382183
-0.22892234276000004 0.25810435744118543 0.0014975741720178596
0.01212927944763584 0.20235832870258708 0.08246595713135424
-0.2740204091284783 0.17260278048772665 -0.10885679950419436
-0.18418544257914707 0.2135113472919978 -0.1256046497353843
-0.1697379913825069 0.09567310969772563 -0.10687710785988119
-0.08524416029202102 0.2633127876330849 -0.1026242151511965
0.15189893799979406 0.11661320489906102 -0.07589672052423108
-0.10063586195066278 0.27429616984123595 0.0036361429207813776
-0.295944660569286 0.26864441407129647 -0.04994735595461337
-0.028079922095626972 -0.07690278174602065 -0.12940066289943875
0.0855671804589535 0.26605701253248554 -0.09896844982350511
0.22603569191397813 0.2180678453359929 0.029131119955584747
-0.1492383476436611 0.09296562785857801 0.08033720376076157
-0.06040107156595435 0.15572620981059265 -0.13524677767285076
-0.05191903368132145 0.21969223773532107 0.06442710613914031
0.14260679277252422 0.1007654513124724 -0.030182905464406384
-0.15969093426494552 -0.16313187146436206 0.06363375317624889
-0.10038359704801038 0.13745351460662758 -0.1357162511419843
-0.16645788484533944 -0.15932599131871328 -0.08294157551769882
-0.18748873519528325 -0.14256067692947721 -0.04750672943368281
0.12172371243434923 0.2818706169335155 -0.07202411266224061
0.12739871020903987 0.2783692068617149 0.009926791063751238
-0.06866767788438598 0.1842239477530686 0.09170660047077184
0.0729626496745619 0.2429838561437697 0.04127773293275482
0.20001126119505455 0.16021196152503964 -0.11111287604375891
-0.20833347605180358 0.285896101929683 -0.03932469062657604
0.1219840876445627 0.07776830403782484 -0.10391443877494731
-0.008223794305008676 0.03932424693756058 -0.12724869972891745
0.034330088470195017 0.007681946387674475 0.14321868161737716
-0.05123048822460308 -0.14373494413365032 -0.13636008749553663
0.0838617467233594 0.077644872407101 -0.12253803217637395
0.10153868854037058 0.02027638351248318 0.11060841283279316
-0.13694374616575467 -0.23673847344296386 0.0927368126976521
0.0036845242257727306 0.10589426840791505 0.12321497594319537
-0.08005375850522549 -0.020510104246335193 -0.12852529019382455
0.21393925632108138 0.15100910941081147 -0.10195374290072799
-0.19832434169471627 0.2493427194506655 -0.10328267525417754
-0.022177180394716958 -0.23303453047504355 -0.1550265297484662
0.08984052617955743 -0.1629924695811222 0.12560379499484703
-0.04414417124310174 0.09680429427928922 0.12653915281514463
0.16908966437719272 0.22107783250751015 -0.11293185139562939
0.14270524542033422 0.09374866474276243 0.019151744970474092
-0.20216770583782726 0.27232620346253283 -0.08256788587113853
-0.18912410895554982 -0.1746681094452504 -0.05828796209357333
0.2189338302135371 0.19283861241186692 0.015238133165828175
-0.19447942044576474 -0.2567601420790035 0.05617005508826195
-0.1651978802925442 -0.13704108406855672 0.06910779256978479
-0.11939740735090786 0.03876457194294822 -0.12459656515485429
0.11317806962506 0.2918687212961996 -0.01542464964285785
-0.09543260585916895 0.08008756392807745 0.1285091267216224
0.1262201912973311 -0.12367947847552296 0.06444214015872646
0.07646022758736246 0.2712712707903334 -0.09664357809957523
-0.04991876989266708 -0.0661366933874255 -0.14058044513144055
-0.15993743013931966 0.05267850759582722 0.04877518889371388
-0.08995152022686448 0.18085910402132785 -0.13622537323374534
-0.012709064597161758 -0.025198414514845266 0.1497964135496771
0.18129434028036628 0.22154411313842262 0.046113586802215965
-0.1295884665903589 0.28282104830207905 0.00028166225446032457
-0.20356157058314925 -0.06052368144493146 -0.023405734345262323
0.15170696714122214 -0.23529627599146916 -0.05253473660699061
0.14085096645005166 -0.027008176513644178 -0.08342227938351182
0.20435515463527953 0.2551380787118474 0.01129149260637046
0.00657617904561841 -0.15793978911535006 0.1530891072850497
-0.2851623557080022 0.24967668528414869 -0.10305368483924421
0.010092771486286579 -0.14756654296721378 -0.13580801288140662
0.14173225275273907 0.030574367695269618 -0.06609902711790025
0.1644927362597031 0.2902539155490899 -0.028444224083336526
0.19099182515187985 0.19971307755869078 -0.11227294626772434
-0.12476806608202948 0.05772924393127417 -0.12275730216288319
-0.32648094345319073 0.21516938407972253 -0.11662206391370684
0.040881583703650984 -0.1462533896119102 0.14763483412515563
0.09679334196503525 0.1468815386551243 -0.1325416567665022
0.10373610200447864 -0.07316290908573189 -0.1008678896346989
-0.19350332324980662 -0.27723301446212495 -0.04994327979013749
-0.09318664311990935 -0.012239459908513056 0.1273343313574631
-0.12278609577896318 0.1129877849006234 -0.12824700461553032
0.2900089364527012 0.17243537108532514 -0.0408468151660295
-0.1587007737445266 0.09765975788808721 0.06932619660544281
0.14553064103051241 0.052063015965074476 -0.0025843509935036197
-0.2127647703251503 0.2784659719233736 -0.06309527554338111
-0.048820644104961425 0.235228517673739 0.05209846891242831
0.00017040385628538804 0.002986852551934963 0.14480943866766732
0.15955198891705202 -0.2398793201797819 -0.025740121265042416
-0.054226511038140704 -0.047265946878262965 0.1489256509638348
-0.036930284319687354 -0.18189472144894633 0.15003347496261288
0.1294999363526533 0.1644372906060954 0.08529327638640372
-0.25935056471058254 0.21341439059498477 0.018103420427120796
0.23627632554652211 0.15465799111101022 -0.1012963765640721
-0.055785601956677984 0.2650307667032333 0.022165213697264072
-0.11223864699468537 -0.1448321896523593 0.12885169996916698
0.16477237406758474 0.15595242247741065 -0.0032050576404642427
-0.03449652663023667 -0.08802174532687045 0.15592332078460514
-0.03690544015917167 -0.11031956845801114 -0.11349783477391773
-0.0016295655952973066 0.252078435785005 -0.11361787100998443
0.2757630362403379 0.15904874690790416 -0.08890809379175284
-0.278373651814791 0.25361312905153793 -0.00993730041479128
-0.22392723014990787 0.2663481483760412 -0.08242338655646543
0.07047379411175396 -0.2252727254393333 0.12668193317203133
-0.04780630378835084 -0.30056226829412425 0.1194221356095901
-0.18765769781515193 -0.2863205225530536 0.04770815634525785
0.1665082999796899 0.29030970439234394 -0.03879231359704332
-0.10080377664445543 -0.18406293929155554 0.1273566545877398
0.05408983698949018 -0.0365793291380026 0.13950693960808971
-0.21874637176371275 0.2821962334809744 -0.04123456196258113
0.16170072490690576 0.1264583982681273 -0.04640007156140072
0.1604703414056958 -0.14773738509083495 -0.039405946179630336
-0.11803335775113773 -0.020404013990666766 -0.12383450628867268
-0.061117767919061684 0.28199550151877845 -0.09110681985037301
-0.2209104283480416 0.18219195078442738 0.007792489131418041
-0.19531240313618609 0.12919208946009023 -0.0790940816915744
-0.005770154004929976 -0.3072779087397452 0.12334289055593553
-0.06355740461723498 0.243410058344098 0.04202197706385168
0.23870806237056494 0.22437098281517684 0.01596807954481007
0.07469281077365318 -0.014144888566946344 0.12086603373905057
0.10414972033940217 -0.044817769017662185 -0.09998994251910726
-0.023755780806158536 0.20495888075132299 -0.12525296623294607
0.039483309847601386 0.28007500688932985 -0.09749291729310584
-0.19490227192698803 0.15133831408084977 0.027321846391532335
0.031136808742525123 0.07373223341215844 -0.130051607013277
0.0677837565056831 0.17255910549218711 -0.1378246014863514
0.13989825120199154 -0.04052252844462074 -0.06650325434167613
-0.19889971227993342 -0.20621188507599844 -0.017847623606682923
0.14340958667026524 0.12207697693349363 0.003514753660776055
-0.17436175597107245 0.018173612465819104 -0.06785992077403454
-0.11313977633273778 -0.1264224180128188 0.12987367023791585
0.049122674599923526 -0.06183276722624237 -0.115089644670285
-0.3141602362375269 0.25299857983707497 -0.013409631664983952
-0.173204423053589 0.2507738503651154 0.029622541854139425
-0.1380914323179221 0.20494155666083214 -0.1272195676449472
0.10646790877167096 0.18578802699151006 0.08800841249499138
-0.1728350604844207 -0.13814982887823687 -0.07433957899675217
-0.3069955316467444 0.2031551029397532 -0.004718883115508985
-0.2747889179828607 0.2671883402916052 -0.0673289206877232
-0.28546014975990536 0.2640941739521447 -0.02897147833861559
0.15459216716716512 0.1557280302299043 0.020834308321410082
-0.09196026769956228 0.013438281647950202 0.12577306676265063
0.2224765664100608 0.1960391272657894 0.019988662655615014
0.14994755984759153 -0.09479125173040721 -0.04645260128117268
0.009031270945291135 -0.053874633212330034 0.15284344466873293
0.09470371971184247 0.18833147479273427 -0.1306562118144322
-0.12838850493854306 0.22269052781540696 0.05433047572084964
-0.20378435239918197 -0.26416995803151244 -0.01440252888518689
-0.04154811090744157 0.13044063853006488 -0.13720839014951897
0.11428013684372845 0.083111252661204 0.10504424861654595
-0.060598847160881444 0.19388883178181446 0.08427436145315172
-0.2536943322985495 0.27091853954121337 -0.05968337798843385
-0.13449420363923206 -0.1775608151195088 -0.12322554815420772
-0.07206729751475228 -0.027440555108150893 -0.1282766396734945
0.22469926231338136 0.2728703190432243 -0.05552208470978357
0.2410771138397858 0.18598228402735312 -0.007490402202367279
0.1585898709207546 -0.20356458575049508 -0.02295362227415613
-0.11735886656271478 0.2885831476910733 -0.014145557555096474
-0.1860482618556666 -0.04108995927709045 -0.04378209303247082
-0.06889502089360239 0.004303760678346555 0.13998766182994743
-0.05223855540525231 0.21474530870223726 0.06811853404530797
0.17985256038842246 0.2783999215660769 -0.06695693620349463
-0.2354549898302615 0.19213262693955038 -0.11962048560680875
-0.06804198801834459 -0.221841969265829 0.13801935818220148
-0.1783191256659711 0.0942578136820613 -0.0356519742301928
-0.31675411898677835 0.1849633763359021 -0.1117982467708411
0.04532939575673901 0.058215482657908844 0.14003537545440153
-0.09592881728323416 -0.11041442861586694 0.14006711269147176
-0.1948690568409399 -0.2526184669067386 -0.04086924158488981
-0.10630263884513322 0.15065140835723026 0.11084385828666987
0.233929418557509 0.2710559188775297 -0.051724235744626035
-0.11413586106665513 0.05854379188134392 -0.12649737781638282
0.14211272883970935 0.19137114394534083 -0.11984371159250597
0.16492840392695704 -0.16368186605228563 -0.027672507153419217
0.11059080171029576 0.29372754418341745 -0.04845018014403934
-0.0521067175327581 0.16268817709774455 -0.13485024655786762
0.08704598838024762 -0.12616868359753472 0.11333405410251236
-0.08369896355375943 -0.11285690696730168 -0.12874204527407557
0.16215044771995374 0.17194688056735508 0.045919656125986155
0.3166198485666719 0.2356754904408856 -0.0063592627191332496
0.16579263476041814 0.23720838516226098 0.034332979579920105
-0.18471318024599204 -0.02309054762329247 -0.042606213001288556
-0.01819078716705034 -0.16636020431905255 -0.13713164271200862
0.018774470685639227 -0.0819437517061132 -0.1058434992360134
-0.18514835722203776 -0.061625034755145844 -0.06213336977809418
-0.204244150080349 -0.2764761881167369 -0.014400432181298842
0.11490175084623933 -0.027873811217385705 -0.09628025624448107
0.14263709226577614 -0.07054237770674028 -0.05982327070036916
0.09042365957195798 -0.07166413213973981 0.0985873125853193
-0.15997447680907667 -0.026718686968084132 0.05691659661878072
0.1538813331886253 0.19625766625393853 -0.11973781523967038
-0.11962370278648085 -0.1866551545509105 -0.1297617430043111
-0.17376571192805612 -0.17055009418850187 -0.09009946855033649
0.09535090405166549 0.24152560123823796 0.04062974104402535
0.12689145246628258 -0.02942205697907432 0.06717302289247934
0.12146895047981261 -0.18914625489182468 0.09393641425973012
-0.1834392746410806 0.005799571280848401 -0.04255997946104592
-0.08641445223639203 0.2817120603914843 -0.08160722588734289
-0.16035944856297465 -0.16384639290342878 -0.10023901934884633
-0.27275685678174066 0.1901404237339383 -0.11894930142276706
0.07471504437235661 -0.06748112763640404 0.1210298177727777
-0.09346018359135717 0.20010221576982537 0.07584534939641326
0.14316890750783015 0.12143547411656821 0.07347450778870615
-0.006345439831964802 -0.20793334140627417 -0.14978242388836743
-0.09514244066735686 0.2075817247671336 -0.1296358199642167
0.10671750783663189 -0.25875400975727025 0.10102211089007564
-0.04344458671514772 -0.18026553338142878 -0.14064761838613402
-0.026555315071753103 0.04704902175143587 0.1338547102096905
0.0931269481836919 0.10568101419543866 -0.12673986072535232
-0.08762613108707171 0.0718171308917685 -0.13045917553362393
0.0507754952365824 -0.08081362580726735 -0.11287115756850145
0.12260643314146448 0.1204615884708158 0.10306302027168396
-0.14914568922973276 -0.15330532774813826 0.08793192194766135
0.15813124318908986 0.1235545768458545 -0.043077237885369254
0.03834920198724438 0.22189916662401715 0.06582725206262417
-0.16473339695212053 -0.16144201092007385 0.05627440587624119
-0.14254034960436185 0.16273509331992023 -0.1290126686335633
0.1296751977160178 -0.1733465561768327 -0.08048272397619328
-0.02786278828417264 0.13540953539822098 0.11408636236946304
-0.12612528150303626 0.21112342049337438 0.06338923671405132
0.11500832142868991 0.07061419353617819 0.09510760573696689
-0.0009323214361881028 -0.15811764551184548 -0.13752389357380906
-0.31757990993234625 0.19791510474024798 -0.11691945612737553
-0.008911261310721593 0.17252330836604085 0.10009608331501725
0.14933254840665938 -0.0031984475535429407 -0.041477415347954724
-0.08016597955028196 -0.277802461975773 0.11303925102932456
-0.05111423075789658 0.19905587345109313 -0.12976457082386988
0.03892000468986184 0.15278748896133842 -0.13660930650483816
-0.019228830277827284 0.18215024764653656 0.09545525068045271
0.158507019743618 0.2918473812257838 -0.04944023032805342
-0.1405427099232371 0.07621849998988718 0.08647269825348287
0.041629263337116314 -0.2044902881559962 0.1383070065744278
-0.18233412937073715 -0.008300867049916519 0.010817417607636309
-0.018974307489073163 0.054232361943415616 0.1322078249317883
0.14633259069636162 0.16362175179304106 -0.1181757645165835
-0.33937313604086294 0.2238669201436536 -0.11305846520616453
0.2235982557119649 0.19597232905362424 0.01941068368941068
-0.15349833861273318 -0.10992667789682517 -0.09616240649254075
-0.0837724856469426 0.009260864064810217 0.1321962530808691
-0.166749760088501 -0.029616472362035823 -0.08652997559388789
-0.15650314358800288 -0.15474604609448486 0.07157843370336528
-0.3137102947875878 0.20170107418617328 -0.11834473538117507
-0.19892998513726498 -0.20584117860432014 0.022553898341978053
0.03951626479098089 -0.0689473773593481 0.14537953356689884
0.02889890926763054 0.2308014122326391 0.0573025265830121
-0.11308017785446446 0.16393216787220138 0.09981957802780794
-0.1522732367620966 0.053686076759945175 -0.10319526900413623
0.16092245542144704 -0.12312124204782643 -0.04828343022969552
0.1337014089327667 -0.0086871404182047 -0.08809371522019364
-0.16219256410225333 -0.23433245007170503 0.07789195982269045
0.07323822489004836 0.14320700244017345 0.12696156273015202
-0.1005160134059579 -0.22221946495403697 -0.14976965088405567
-0.018908272488573807 0.13801928176344516 -0.13544783778160124
-0.14423787972125868 0.27932544851531654 -0.07889659745003519
-0.30242603996492545 0.2209495315081429 -0.11804701795896004
0.1179091430774348 -0.04130845611046916 -0.09312183518814525
0.05033423300077077 -0.05192682879336674 -0.11709778457184723
-0.08564160713613835 0.042770579997324525 0.1301941346177082
-0.16259133081171606 -0.1305626931050123 0.07687561669754087
-0.19928559869517465 -0.051598493124131894 -0.014498820094164007
-0.043291385609465625 0.08271673703998336 0.1289836336358057
0.1810373889453054 0.2405832687571603 -0.10442251748891256
0.06532432553752322 -0.11946971719177005 -0.10270925596348689
-0.10143567908221549 0.018578446204846485 0.12015149299743848
0.11400065803830495 -0.22073963458131843 -0.10845414607122467
-0.023890521733007836 -0.12361222865982466 -0.12483773175455111
0.02920601401672708 0.15390854226174983 -0.13575667385913603
-0.05958255306386419 0.26222269821410243 -0.10690478864572625
0.011673495020907186 -0.20424555607541928 -0.14638722422334702
-0.10665088625089206 0.20115812494521457 -0.13180143064257804
0.18396252559155585 0.15436797646085035 -0.03652163973426233
0.10216975855640117 -0.08701824343202894 -0.10529540730368038
0.09078061824528272 0.29352906432602643 -0.032030913092547054
-0.1918922645642679 -0.18899876542980934 -0.053295430213873674
-0.28388669079359663 0.1525324039326438 -0.08378827666747249
0.11820547059088776 0.1654215451426047 0.0943202318738148
-0.17937708640428146 0.15001784490655556 -0.11670744903793052
0.17457063764464076 0.19199430687542215 0.030921356657050005
0.25553299569964827 0.23514416900571578 -0.11209757586703416
0.05260768747123558 0.07870029475511764 -0.12902729975645633
-0.13968335155061337 -0.2442022843383344 0.090189306002235
0.23109987517201064 0.23047472439005684 0.016967336126118303
-0.14033129888213983 0.0035037129235752735 -0.11280518931570403
-0.11997380030333882 -0.006518940533729879 -0.12379089261830233
0.06864904841486501 0.27718663823308926 -0.0927586717162266
0.3249852883180493 0.16024312355839943 -0.07078934494838111
-0.13294413959747328 0.23723003835580442 0.04155104513680247
-0.33200407793126246 0.16749184925422148 -0.049485479362804695
0.10589997668513886 -0.11480634566884212 0.08296964713989605
0.1578251734271424 -0.23710308937710528 -0.031718354742278604
-0.05668594624993359 -0.21507998670321649 0.14196666249294906
0.1448605110799462 -0.05285080643505871 -0.029851539226272962
0.3230368000347168 0.16102839079283943 -0.07141102093306045
-0.1782806290772753 -0.2200018356609209 -0.08049766380499818
-0.0031529411203957414 0.17575005248582523 -0.1312787356426396
0.060629237549768226 -0.2955156308797203 0.11247642150733166
-0.039946957530499164 0.10439121942762535 0.12380049050642944
-0.181253230413975 -0.1812930939043004 0.04956853073488339
0.16165049745052887 0.20251191568867594 0.04948943930125737
0.16565452928042515 0.1367682245221199 -0.07804530002660715
-0.32192028758100383 0.18555838949615272 -0.02329914240419962
0.02960368619866344 0.031179312360161422 -0.12587254159792463
-0.002282289673448831 -0.22263018566595183 0.14253267346184761
0.23634949962922597 0.26305802727147176 -0.02292747764357816
-0.13712737813295783 -0.20862939100165565 -0.12557151430547647
-0.153570366627015 0.07470512883208988 0.06369568016623937
-0.17504132063555158 0.056478291502919366 -0.080980620514739
-0.1911577295661617 -0.09845187732506769 0.030500207918684394
0.09858840126771878 -0.14832204529958432 0.0957437589776871
0.16178627935999873 -0.09856292522832753 -0.021780162219828997
-0.13369963245395663 -0.08759150655150841 0.10030990000709969
0.06807603216838462 0.16046005493261659 -0.13828404394739427
0.1606971992398597 -0.22053770758596203 -0.0159443334571296
-0.10435747338726364 -0.04033481012174806 -0.12308850392738009
-0.004930805037347555 -0.010686772749777255 0.14683274835855906
0.044521211391265636 0.2735547606015995 0.010759018503525643
-0.0003106901898239506 -0.2818441844774156 0.12842410305058594
0.12643726735068567 -0.07177723494278097 0.07219230652074732
-0.20404413413870642 -0.12536639359075674 -0.01554729380142056
-0.0890990290409589 -0.03895351848293754 -0.12450894554195294
0.28929776958641656 0.15828349710949863 -0.0828925406093346
-0.27821446353187834 0.17340537416413473 -0.03619423117568487
0.0204376564957972 -0.18999728209003025 -0.1401919082819516
-0.18141650418551433 0.2692496232595722 -0.09247774895310616
-0.020905111618989513 -0.19638671642062278 -0.1456630052586048
0.012327525077684575 -0.06402073427374014 -0.11624939492042527
0.2758610822910326 0.1930581064041808 -0.0029297443808717154
0.20454477904691215 0.2606891825840658 -0.08998005174401622
0.25979146993603824 0.25151286359108593 -0.10196487651699906
-0.09607673413127334 -0.21806077827110787 0.1284713402193511
-0.017874170416003435 0.16767782475398502 0.1019507506032623
0.11399752420373281 0.2560035424473241 -0.10569504552762178
0.11574906469137977 0.0263169959230828 0.07423051484489496
0.053713530375814424 0.04249083034695089 0.1401384549608078
0.1590641068430742 0.20677641460201643 -0.11657751376545258
0.15331665568224034 -0.048325684714801205 -0.011344150244432846
0.0696990883168839 -0.12957630632045786 -0.10645350947518677
0.1534158780438309 -0.039184536413020596 -0.0024937508466298676
-0.28765956629591155 0.15314445423152506 -0.07952728302253487
0.20769501294719397 0.18857777994926145 0.010510246368086201
-0.09788114077847414 0.09918845118355812 -0.1310395061631025
-0.056923234066131326 0.1482212370256012 0.11378346198014899
-0.07469209242854744 0.0502467639651923 -0.1342931195897284
-0.017394906459103538 -0.20865588760955792 0.1465784832979922
-0.19017546103769678 -0.2623699098550144 -0.053823211151394525
-0.1391535790828844 0.024126991012782865 0.0788912252203224
-0.050548157246889526 -0.17829764610811139 0.14972865186206805
-0.04713165122410809 -0.23776255948176517 0.13787676090021014
-0.07671448910844747 0.11948287120744139 0.12776817552339306
0.21707502984347726 0.15720639545594975 -0.07857453799416322
-0.12458606240176247 -0.006076652901396298 0.10882323742282034
-0.03300593845663922 0.1342005722625451 -0.1377626159135622
0.06742631937015958 -0.25162511499308643 0.11407280509124222
0.02004355668186303 -0.020745497238602292 -0.11737208354078006
-0.18267593844866983 0.08545088948449003 -0.08562913805977079
-0.25329983003420087 0.15655629862339096 -0.07680751163681292
0.013282094725816655 0.09128647610163368 0.1310552192382716
-0.12776237920317499 -0.16844339895497332 0.10543631669231565
-0.18496458805263039 -0.0801094892301213 0.03455652735383079
-0.14714957514286964 -0.15400136720150104 0.09074958878416602
-0.01902211763943177 -0.10451476705077856 0.15809244697817418
0.052020639750039614 0.07668307854846948 0.13870150663450104
0.1689690273161487 0.23400886157217723 -0.10940410915567271
-0.21145592664226623 0.14574734277269796 -0.03933442497490489
-0.09255535080248473 0.07472272001668333 0.12869352080761892
-0.05669479498743924 -0.0642421522781793 0.15056185741737554
0.16081594556297102 -0.2133246363513669 -0.010547210504278681
-0.19401321404227184 0.25197294452057317 0.02188938611789195
-0.19510421428074487 -0.22664274315503455 -0.03471280113043317
0.07835370299476957 0.06069900518475555 -0.1251120221589603
0.09053643643458262 0.06106056841383147 -0.11732247876482589
-0.16404433740825072 0.1947929476870326 0.06363664078224532
-0.16740519189138559 -0.014088361754866167 0.03920697984211003
0.007655533377285733 0.1019362850013266 0.12582384103627717
-0.15568594300765617 -0.06368280246833222 0.08363341165088849
-0.2532220419458673 0.25997244941037356 -0.011168756786181634
-0.02857367463333891 -0.20961473618013904 -0.15026575063474293
-0.1948704123582639 -0.03921393777892122 -0.013118884270808812
0.10904418229035001 0.009280307410377935 0.10035594413131292
-0.12165631871845681 0.2726011759443476 0.010684519615121475
0.16834857208922732 -0.14168601777036835 -0.011243259159200544
-0.159131646915028 -0.1483473116240148 -0.08748064355765393
-0.19931137721170458 -0.19286206172470832 -0.001773912134488004
0.0802539573451725 0.2944479436979416 -0.05429571549570075
-0.2488910191501541 0.15289439001254757 -0.08605498746229448
-0.03274251406124133 -0.069001033283057 0.15543228792973385
-0.02928800978546408 0.23074415846203408 0.05718736860110535
0.16340794055959149 0.271795189194613 0.01033894069965048
0.0006633166271254667 -0.05921885671400651 -0.12363479880517203
-0.2653865655728051 0.267730801766962 -0.06692157367701863
0.0980292779223667 0.060112337778718584 0.1168735399142337
0.26598582514750735 0.2616566485174215 -0.030137275970061068
-0.07849471548746424 0.28699165361021634 -0.006998173760638856
0.1252931631595541 0.2774104078193039 0.010988173044968824
0.14279845923774165 -0.1415703037084382 0.03995635851326367
0.021005267357943794 -0.2698406462027159 0.12816990758452063
0.00939480776785524 0.2546216179302541 -0.11321958127644072
-0.1724194323088938 0.018937039507113528 0.021941527184889432
-0.12456123385160914 -0.23029892908454186 -0.14212332365507652
-0.13623333882354632 -0.22342838622086245 -0.13168098812319307
0.006440864061537807 0.2516408510346376 -0.1141388250608215
-0.11094562342718887 -0.08570813692655493 0.1262677923754297
0.10682875728515973 -0.018571073927486678 -0.09872483479600519
-0.20035978566519744 -0.2784000164672976 -0.031017153910728297
-0.17131400168980251 -0.2408536031927317 -0.09201709919776933
-0.06923770426162747 0.18953360167150948 0.08725582328784674
0.04928693671328296 0.25669330967177134 -0.11124213448525885
-0.1240149333535885 -0.23757195207585954 -0.14414215534975405
0.1634919838244922 0.1812032527990558 0.03381989169889478
-0.0336516493215995 0.10543925282551168 0.12277074962216189
0.07386090463425296 -0.2165502434944024 0.12790989189848417
0.1535607011001792 -0.06540600334523476 -0.015720111184809704
